# .PCD v0.7 - Point Cloud Data file format
VERSION 0.7
FIELDS x y z
SIZE 4 4 4
TYPE F F F
COUNT 1 1 1
WIDTH 1297
HEIGHT 1
VIEWPOINT 0 0 0 1 0 0 0
POINTS 1297
DATA ascii
-0.096265905 -0.004795216 -0.07367678
-0.02808121 -0.11911625 -0.0049269125
-0.063719571 0.095923759 -0.042019717
0.01891665 -0.11897234 -0.022562534
0.011891076 0.058159061 0.10749017
-0.052804302 0.1097103 -0.015446417
-0.0585998 0.067704462 -0.08389245
-0.097959496 -0.01601591 0.071229778
0.092170261 0.040396981 -0.070654511
-0.10079657 -0.0011683479 0.069018826
0.079209857 -0.03056214 -0.088830546
-0.042493228 0.10305902 0.051056158
0.073574804 0.029007159 0.09405224
-0.070134923 0.039263152 0.092471816
-0.082210213 -0.022825539 0.087827466
-0.11374805 0.02230721 0.039653629
-0.0036057248 0.05168242 -0.11130339
0.014288325 0.11528122 -0.040112413
-0.07529971 -0.078219585 -0.056634136
-0.050081424 0.08480873 -0.073227197
-0.10890857 0.0031252727 0.055677287
0.025015596 0.11904398 0.017284226
0.093067758 -0.057293728 -0.056147918
-0.090808511 -0.033409901 0.074986175
-0.085184641 -0.086652204 -0.0023992583
-0.068408057 0.10178851 0.0034353547
0.00078845187 -0.12140834 0.016838882
-0.095047563 0.028873123 -0.071762905
-0.017186649 0.097529329 -0.072624192
0.073670447 -0.022893161 -0.09563747
0.052401137 0.025580697 -0.10813451
0.051025242 -0.089395046 -0.066872552
0.016335832 -0.11829612 -0.027477778
-0.10316418 0.0034422502 -0.066080682
0.085985579 -0.057120293 0.066362262
0.07862775 0.016039528 -0.09311375
-0.11377155 0.0094474927 -0.044286877
-0.020139065 -0.022753641 -0.11866093
-0.07042256 -0.098641582 0.017555987
-0.10439762 0.063748322 0.0083043575
-0.060777985 0.010542519 -0.1058944
0.058147479 -0.096180797 -0.049262248
-0.043165017 0.0063658878 -0.11457202
0.092140779 0.048566006 0.06466119
0.11215399 -0.035636745 -0.035664171
-0.050503746 -0.05065164 0.099494189
-0.029091679 0.11711403 0.021943271
0.013515048 0.028102435 -0.11881502
-0.10850735 0.029805623 0.045172572
-0.074698895 -0.082173049 0.051394273
0.0038867909 -0.1212605 0.017455297
-0.039361499 0.059713043 0.09939155
-0.045387369 -0.081566066 0.079136953
0.093242757 -0.079910561 -0.0024845637
0.10314012 0.039602093 -0.054022178
0.057625648 -0.03821855 0.10142833
0.03316671 -0.078699075 0.087878436
0.0094839912 0.011579402 -0.12138207
0.050855044 -0.096210912 -0.05666472
0.097985193 0.054799758 0.049979005
-0.048376527 0.098202176 0.055300176
-0.020440547 0.089073412 -0.081890039
-0.09178786 0.051764257 -0.062740423
0.053109352 -0.10312025 -0.039829791
-0.1149737 0.022576563 0.035728805
0.036004648 -0.069097705 0.0945393
-0.072288342 -0.046735048 0.087149844
-0.060454715 -0.090886414 -0.055653609
-0.06742885 0.038394235 0.09479101
-0.12184747 -0.0096764266 -0.0055976883
-0.046327677 0.1099545 -0.028860092
-0.028832681 0.11004271 0.04553942
0.11018351 -0.01570861 -0.052161433
-0.032969892 0.11827873 0.00010441244
-0.096095495 0.054451458 -0.05325222
-0.0059922207 0.042944171 0.11442631
0.063680179 -0.073746361 -0.074749768
-0.073751114 -0.089302763 -0.03977216
-0.092382789 -0.073432773 0.032666478
-0.10517896 -0.061128672 -0.013659507
0.11212172 0.015123524 -0.047990844
0.037144482 0.038069434 -0.11072117
-0.0399004 -0.03884314 0.10913471
0.041867558 0.038546748 -0.10887422
-0.081980012 0.063197829 -0.065757655
0.088876925 0.047252499 -0.070689604
0.074507102 0.089533411 0.039411709
-0.056139778 0.094132878 0.055091187
-0.11493048 0.037597515 0.019270677
-0.098830834 -0.071152419 -0.012728967
-0.096948452 -0.073129103 -0.015680879
0.10868216 0.051139392 0.025700342
-0.032116473 -0.11642095 0.020658925
-0.058607724 0.025456138 0.10456397
0.029035307 0.031779118 -0.11503084
0.10782409 -0.023371086 0.053926624
0.099142484 0.016884468 0.070673622
0.036992267 -0.07123857 0.092520952
-0.10039125 -0.062935658 -0.030833542
0.099662326 0.0037408322 -0.071449399
0.012093708 0.11406093 0.041900091
0.11180764 -0.020119719 0.046908658
0.029179778 -0.11891079 0.0049077701
0.051849484 0.064861961 -0.090604715
-0.0041990941 -0.11818779 -0.032282248
0.10838491 -0.025484331 -0.052126892
-0.0981436 -0.072130971 0.012228232
-0.051753763 0.066477112 0.088980585
-0.09814468 0.011359595 -0.072491989
-0.051705547 0.11105595 -0.0064122602
0.086357988 0.061555453 0.06191884
0.087208048 -0.083070561 -0.024144147
-0.11049782 0.0024932697 -0.05285053
0.057654768 0.051387645 -0.094768062
-0.038816772 -0.10320483 0.05325456
0.072380662 0.088974975 0.044333283
-0.081851639 -0.089865461 -0.014732964
0.066284142 -0.091583766 0.047525659
-0.016435336 0.095461406 0.075470023
0.0026100907 0.083839603 0.089667723
-0.08276207 0.084819324 0.031616963
-0.085365489 -0.011630148 0.086977772
0.011042593 -0.056511875 0.10817516
-0.080051407 0.050553195 0.077857569
-0.038023695 -0.11635244 -0.0015133023
0.0087888818 -0.10869346 -0.056020007
0.08286868 -0.067798078 0.060078606
0.096957192 -0.00095878541 -0.075334743
-0.07531026 0.049991392 0.08276213
-0.033011526 0.11565413 0.023838211
-0.010636471 0.12162689 -0.01355432
-0.011713976 0.0085221902 -0.12181914
-0.025098762 -0.11452504 -0.03551504
0.050516054 -0.0368606 -0.10553934
0.043786384 0.058180012 -0.097778484
-0.047535334 0.087481253 -0.071770415
0.086936779 0.046239875 -0.073704764
0.0081260446 -0.055917665 0.10874844
-0.066071026 -0.013603039 0.10231593
0.0064154821 0.12159302 -0.016497858
0.055862784 -0.10166946 -0.039826736
-0.076534078 -0.082553163 0.047974538
0.058733124 0.029604577 -0.10385484
-0.11007611 0.012498371 -0.052289903
0.036500227 0.099122204 0.062875718
0.044390623 -0.071951032 -0.088894613
0.009146817 -0.12205965 0.0072051212
0.088222764 -0.026310198 0.081183329
-0.11881097 0.029360957 -0.0017220043
0.016161228 0.10666006 0.058889821
0.050431114 -0.051457562 -0.099034458
0.058364712 0.0014423057 0.10802072
-0.062251758 -0.066898346 -0.081612028
0.0037535806 -0.072146796 0.098920695
0.037228055 0.040916793 -0.10970964
0.0049625426 0.054937862 0.10902537
-0.089585602 0.058086224 0.060190227
0.030407298 -0.11150467 0.041061956
-0.067008391 -0.069471151 -0.075416684
-0.096385323 -0.074975714 0.0084637385
0.017115623 0.12169785 -0.0023344606
0.032385066 -0.10864151 0.046874736
-0.0091695506 0.12211216 -0.0099763721
-0.058069572 0.0033952668 -0.10794736
0.016234413 0.099120848 0.07074894
0.11881888 0.024354167 0.02042973
0.10525529 -0.061792299 -0.014410008
-0.024391081 0.049508505 0.10948984
0.010798041 0.10977889 0.054017134
-0.12109558 -0.0029896945 -0.016838863
0.077809162 -0.028254077 0.090661213
-0.059800185 0.072817199 -0.078614593
0.068552367 0.089136295 0.049712542
-0.033513743 0.10282346 0.057859883
-0.035023738 -0.095025212 -0.069050141
0.006050006 -0.091100432 -0.081944756
0.052802719 0.066924416 0.088228725
-0.03699569 -0.066232964 -0.0963092
0.064442538 0.062783279 -0.083770961
-0.012741154 0.09201663 -0.080284864
0.070994481 -0.097629562 0.021541569
-0.06911844 0.086499132 0.051810328
-0.088017032 -0.068712801 0.050184265
-0.0063674836 -0.069364786 0.10081992
-0.11307549 -0.020477004 0.042182796
-0.12173914 -0.012311906 -0.0029822029
0.077652849 -0.078436941 0.053609338
0.10970851 0.053819798 0.014269747
-0.012385713 -0.0044850782 0.1211459
-0.018201338 -0.067932621 -0.10046588
0.010665018 -0.0058457926 -0.12218052
0.021883648 -0.092722856 -0.077357858
0.060814001 0.10342848 -0.026470441
-0.058223046 0.018056877 -0.10491812
-0.058731731 0.08297924 -0.068650976
-0.018020246 0.018955462 0.11949266
0.086085692 0.055349387 -0.068202823
0.11939382 0.010095172 -0.025312535
0.075354397 -0.090838924 -0.033318408
0.016319245 -0.038315535 0.1153955
0.087370098 -0.085918441 -0.0082818568
-0.027457979 0.11893664 0.012806039
-0.089255922 0.0838589 -0.0050673597
-0.043017972 -0.1125323 0.022209939
0.042766564 -0.10791545 0.039428111
-0.11938591 0.012191944 -0.022997841
-0.079502054 -0.011300497 -0.092506155
-0.063901879 0.01657515 0.10329148
-0.039630998 -0.022844002 0.11359703
-0.010237752 0.10876787 0.055975869
-0.048962094 0.058888607 0.0955019
0.048391078 0.01839719 -0.11137803
0.11552849 0.034650035 0.022328027
0.092739336 0.039675839 0.069890819
-0.084997654 -0.0053491965 -0.08812052
-0.10031699 0.062585361 -0.032230228
-0.036444724 -0.01409395 0.11615612
-0.11587419 -0.032614291 -0.014558218
-0.056690037 -0.038061999 -0.10177173
-0.022600103 -0.024399921 -0.11788975
-0.061797161 0.094113849 -0.048668049
-0.0098471716 -0.02889128 0.11880057
0.12223831 -0.0017345995 -0.013159972
0.10953368 -0.052505881 -0.018824689
0.10688083 0.06062717 -0.003860265
0.062385768 0.018497281 -0.10429056
-0.058760453 -0.078793004 0.072685048
-0.027564257 0.10802235 0.050990518
0.071016073 0.091321625 -0.041652285
0.075118862 -0.095432863 -0.017567549
-0.036020439 0.11270111 0.03148118
0.10167048 -0.064493239 0.024339221
0.041685328 -0.11252154 0.018775715
0.019899759 0.11656045 -0.033579081
0.053813018 -0.10958692 0.012435818
-0.10577666 -0.03977371 0.047115199
-0.034519035 0.064662777 0.098237611
0.019820407 0.022575893 0.11880745
-0.040321071 0.095785193 0.06521792
-0.098669723 0.015821569 -0.070932522
0.083108664 0.088255547 0.020820603
0.067046568 0.076067559 -0.069231704
0.032386567 -0.10061146 0.062097199
0.1011421 -0.036549889 0.059489042
0.029979758 0.027388461 -0.11587858
0.11312605 -0.029619135 -0.037950277
-0.10953103 0.023761161 -0.049462125
-0.091424435 -0.067205481 0.046044961
-0.034323823 0.097242109 0.066507407
0.10942907 -0.00066947937 -0.055834278
-0.10035597 0.03204792 -0.062651545
0.07923077 -0.089374743 0.026905177
-0.094211765 -0.021606095 0.074929684
-0.041331638 0.11558951 0.0016253814
-0.095475309 0.034634106 0.068517089
-0.0039736684 -0.046313629 0.11346979
-0.019681763 0.12068937 -0.011700988
0.081783928 -0.091530263 -0.0036272407
0.057997409 -0.019362196 0.10536931
0.018378278 -0.03418462 -0.11645715
0.0010323669 0.10978771 0.055090822
-0.03206801 0.099305995 0.064561501
-0.104128 -0.059750993 -0.023942951
-0.00645814 -0.12209146 -0.003789369
0.094141833 -0.028604493 0.073520891
0.012708493 -0.012556747 0.12133862
-0.089110792 0.052169941 0.066061929
-0.060648724 0.073705383 0.076994672
-0.058837902 -0.053525753 0.093116961
-0.028950963 0.02625189 -0.1163234
-0.073924839 0.091678895 0.032161482
-0.0658703 -0.054544859 0.087682657
0.12035987 -0.0042946115 -0.024894431
0.062141962 0.098379858 -0.039625235
-0.033164602 -0.033709981 -0.11308341
0.054792002 0.097321369 -0.051156998
0.058048092 -0.042126916 -0.099478409
0.030171353 -0.10943533 -0.045811899
-0.064534023 -0.037934579 0.097012341
0.054636259 0.035676949 0.10407896
-0.0023715864 -0.10566946 0.062109165
-0.00058498001 0.083763607 -0.089747086
-0.088319093 0.035538293 -0.077147394
0.0024243155 -0.022333778 0.12061253
0.10026593 -0.0047761723 -0.070654489
-0.023624862 -0.026481248 0.11733437
-0.018048143 -0.034165777 0.11635406
-0.034742065 -0.076032937 -0.08963187
-0.02091975 0.11697339 -0.030962922
0.0029798406 -0.11668961 0.0371475
-0.092209473 0.013749979 -0.079545699
0.097685993 0.05261863 0.052708946
0.07800781 0.083599575 0.042081445
-0.062924579 0.080997877 -0.067325018
0.031633433 -0.11501153 -0.02767615
0.010463351 0.099600904 0.071163289
-0.0080246218 -0.073544666 -0.097837165
-0.10329805 -0.0024950951 -0.063879028
-0.079804651 -0.075810537 0.053462483
0.067015633 0.10168818 0.016084738
-0.097834185 -0.046498381 0.057050593
-0.1057405 -0.060462728 0.010925598
0.1066858 -0.058885895 -0.016008127
0.020308143 -0.061571389 -0.10415336
-0.030539678 -0.11486719 0.02414888
-0.013817532 0.12104484 0.015344545
-0.029932983 0.096556284 0.069613032
0.10347741 -0.063714951 -0.001074627
-0.036203239 0.079377584 0.086267054
-0.12094942 -0.018472299 0.004267104
-0.030433815 -0.035239033 -0.11337017
0.024557227 -0.056562141 0.10590874
0.0072048935 0.087965824 -0.08544381
0.11421598 -0.032711022 -0.031798273
-0.053827539 0.10099789 -0.044203684
-0.0049714623 0.11611552 0.039579682
-0.10684606 -0.043139577 0.041049663
0.076639928 -0.056261476 -0.077792972
-0.066596895 0.0086641833 -0.10252537
-0.03001029 0.0035867766 -0.11877134
-0.061881006 0.019605823 -0.10409127
-0.1188496 0.027281471 -0.0095130205
-0.052747805 0.048931532 0.098890319
0.062077984 -0.10302474 -0.024365526
0.0059365132 0.025316782 0.11988468
-0.074556276 0.061157055 -0.075861692
0.064824253 -0.0013207421 -0.10445051
0.043036431 -0.11487712 -0.00110998
0.098277286 -0.012083136 -0.072706074
0.10700318 0.0092568174 0.059878934
-0.08550588 -0.075548068 0.044388104
0.11139857 0.047793932 -0.020998601
0.096698895 -0.075760305 -0.0017674454
-0.097256511 -0.057999264 -0.046401784
0.090998359 0.082803167 -4.2028725e-05
0.093164369 0.013135128 0.079080775
0.10213576 0.068488725 -0.0017081834
0.067112446 0.039302029 0.095133632
0.012212697 -0.11410306 0.043016005
-0.00089302356 -0.11740685 -0.035281815
0.0023768567 -0.0068459511 0.12243897
0.088127293 0.074185483 0.04305343
-0.06240328 -0.032078721 -0.10027499
-0.034571767 0.10762026 -0.048015654
0.062663183 0.10347617 0.020916682
-0.066974185 0.099828742 0.024486706
0.073419318 0.050917007 -0.084518164
-0.059655696 0.077691413 -0.072728187
0.049347553 0.10161147 0.048424441
-0.11285741 -0.029421054 -0.037208185
-0.10012871 0.047560386 -0.050617531
0.10723853 -0.058528733 0.0063638017
-0.020214317 0.10757434 0.055428896
-0.042150341 -0.03158807 -0.1106731
-0.038573191 -0.026831195 0.11309791
-0.11283461 -0.025781162 0.039837096
0.1063465 0.04276187 -0.044681363
0.10026728 -0.006911248 0.070797145
-0.06513653 0.10355478 -0.0090862885
0.095183738 0.056603007 -0.053304911
0.040865388 -0.048076518 -0.10509273
0.094495907 0.077033453 0.016591348
0.11549024 -0.037909269 0.017894363
0.062441178 -0.10209092 0.026904173
0.056858137 -0.10634565 -0.022645213
0.096094601 -0.075750574 0.010332517
0.096020125 -0.046826199 0.060721979
-0.049380284 -0.10314317 -0.04375077
0.024068736 -0.063945785 -0.10188891
0.019619754 0.044001304 0.1129217
-0.037193161 -0.049350597 -0.10590437
0.046605669 0.10769173 -0.036739528
0.062874712 0.079099707 -0.069593623
-0.094880342 -0.008753024 0.076593377
-0.065865383 -0.022020556 0.10094799
0.048396591 -0.087565929 0.071044728
0.0013546315 0.056352518 -0.10907547
0.078807488 -0.072981939 -0.059615403
0.042868935 -0.00025417656 0.11492082
-0.099553451 -0.016656429 -0.069414794
0.036567383 0.095779039 0.067785561
-0.036543757 -0.11161156 0.034996491
-0.064264975 -0.061130986 -0.084539644
0.088802934 0.019230701 0.082731016
-0.11433943 0.0045457929 -0.043566123
-0.09198948 -0.080801621 -0.00016444176
-0.10271682 -0.065390222 0.011900432
0.062990502 -0.015789121 0.10416564
-0.075093895 -0.047974214 -0.083956219
-0.092281684 0.019458421 0.078140363
0.063367069 -0.045433521 0.0948724
-0.047828149 0.11263598 0.009384755
-0.0067155384 0.12253887 -0.0061721429
-0.015300533 -0.12075773 0.0068338942
0.033086084 0.10666818 -0.05138547
-0.043053895 0.058680333 -0.098719239
-0.032551181 0.038949437 -0.11173436
-0.042773061 0.11424897 0.013082471
-0.11803547 -0.030965835 0.010066126
-0.0431512 -0.021660969 -0.11259995
0.08906696 -0.049540319 0.068581305
0.088338062 0.065437578 0.054882601
0.091930255 0.053036533 0.061492752
0.091044448 -0.0077376738 -0.082140833
-0.074428521 -0.093888223 0.025336778
-0.06810239 -0.077846393 -0.065613747
0.049053077 0.074347354 0.084682629
0.02303051 -0.020020746 0.11882184
-0.03881688 0.021923579 0.11421322
0.056178439 -0.10813082 0.014479794
0.040549647 0.11375133 0.021877654
0.11308322 0.011611708 0.046877947
0.046134196 0.099909939 -0.054646954
0.024071068 0.0091297701 -0.12010947
0.065036967 0.06526003 -0.081333384
-0.042078115 -0.0042075291 -0.11500444
0.11140637 0.049234115 -0.017166555
0.090352781 0.071299113 0.043255996
-0.0062913462 0.11415301 0.044739909
-0.11567295 -0.037500776 -0.014488336
-0.0081179729 0.077304594 -0.094914958
0.097925253 -0.028392591 0.068575412
-0.036621541 -0.11508496 -0.019637235
-0.077447727 0.021763392 -0.092481896
0.034149602 0.015802957 -0.11690603
-0.072507344 0.076685764 0.062512875
-0.049786568 0.090311162 0.06646549
0.072574839 -0.091660291 0.036528431
-0.12169668 0.0050506294 -0.010260776
-0.039655164 0.11117778 0.032742485
-0.094420657 -0.061439596 -0.047841825
0.010637721 -0.12120724 0.015113344
-0.09622968 0.010983817 -0.075075522
-0.041633796 -0.067265064 -0.093661577
0.0082786325 -0.07885927 -0.093642488
0.10840783 0.053939588 -0.021663781
0.041852131 0.087174557 0.075829759
0.11823273 -0.023576945 0.023167735
0.095049471 0.042713635 0.064806134
0.11122745 0.050512679 -0.014327385
0.09896943 0.04109598 0.059971802
-0.11502779 -0.011445537 0.040227503
-0.10913179 0.054678418 -0.011084527
0.12266223 -0.0052237064 -0.0055966638
-0.0129802 0.068649612 -0.10070992
0.017598631 -0.11909643 0.023167014
-0.024163831 -0.01772818 0.11887798
-0.098481715 -0.036843598 -0.062562756
-0.068156324 0.095197178 -0.036015928
0.044428762 -0.11075398 0.028276201
-0.054425798 0.09776663 -0.050335944
-0.01927126 -0.042675346 -0.11335514
0.022328893 0.12016136 0.012671266
0.10568593 -0.0070388392 -0.062175594
0.095646843 0.021259151 -0.074043199
-0.00086088059 -0.12259308 0.0021118969
0.043741427 0.11239978 -0.023996316
-0.028640769 0.10269625 -0.060738482
0.11170736 -0.014966063 0.049051121
-0.0071516619 -0.0058140829 0.12229984
-0.079015441 -0.093511507 -0.0015647672
-0.11850738 -0.028551206 -0.011109013
0.10514099 -0.060416933 -0.01993347
-0.099647433 0.022216268 -0.067776978
-0.11591041 0.019954763 0.033870697
-0.045043577 -0.094603732 -0.063454553
-0.012577508 0.021735109 -0.1201632
0.10782497 0.056843586 -0.016197875
0.12228291 0.011053093 0.006052047
-0.065427355 0.061410613 -0.082509242
-0.012997879 0.11640494 -0.036764182
0.059927281 -0.10588312 -0.016017929
-0.061539002 0.074730195 -0.073719993
-0.055352986 0.10598894 0.027277682
-0.10209434 -0.031097874 -0.059943333
-0.073599912 0.053823464 0.081912182
0.054518517 0.020950235 -0.10811326
0.034540508 0.028972827 0.11408696
0.010515183 -0.067331284 -0.10203047
0.066105783 0.035969995 -0.097251907
0.026414864 0.044037618 0.11150661
-0.1018808 0.053737454 0.041781973
-0.09276031 -0.067085996 0.042882949
0.10873476 0.036988892 -0.044030532
0.12022413 0.019439243 0.017044082
-0.10990901 -0.053419851 -0.0073641054
-0.0081672296 0.05287946 0.11048014
-0.014675735 -0.10067887 -0.068405561
0.011223348 -0.12158575 0.011213014
-0.090977743 0.034147687 -0.074638233
-0.046471827 0.056611262 -0.098389804
0.0049452973 0.10694865 0.060038194
0.10970663 0.040069319 -0.038260818
-0.037971042 0.035310276 -0.1112266
-0.0031281733 0.12265947 -0.0066555329
-0.11226934 0.030872099 -0.038064212
0.12266423 -0.0058553293 0.0016426742
-0.097641714 -0.069529302 -0.024796277
0.10057253 -0.022368424 0.066983789
-0.11768014 0.0040690601 0.033663042
0.054592971 0.10783272 0.020680368
0.10544307 0.048405118 -0.040696166
0.051148426 -0.10593597 -0.034524739
0.10170251 -0.001966767 0.06906043
0.105804 -0.013932079 0.06106757
-0.011396863 -0.12045497 -0.019653104
0.093488999 -0.061230831 -0.050982594
0.098274887 0.015293665 -0.071783185
-0.10348731 0.011690684 0.064312965
-0.0043740785 -0.056535885 0.10867038
0.11144062 0.048366554 0.019539829
-0.058707781 0.08093705 -0.070934378
0.11712316 0.013481341 -0.035027251
0.048126541 -0.050494961 -0.10069802
0.016487774 0.1212789 0.011068095
0.0058447481 0.11574116 -0.040740415
0.043920066 -0.10003892 -0.055735573
-0.094632283 0.019176714 0.075381838
-0.017423455 -0.11777139 0.029062923
-0.10323531 0.041484259 -0.050379798
0.042352863 -0.064156927 -0.09550789
-0.091063082 0.072389923 -0.03841608
-0.07629744 -0.021825068 0.09330631
-0.065557659 0.081501372 0.061746184
-0.078502432 0.093572475 -0.010190517
0.069653012 -0.084203288 0.055764981
-0.069636181 -0.02986718 0.096179232
0.065935403 -0.038877212 0.096033446
0.1111885 0.05135902 0.011665568
-0.10338526 -0.052123636 0.039875142
0.092187434 0.034900405 0.073286623
0.069711737 0.10037921 -0.013826665
0.06448511 0.068155102 -0.079352237
0.045803402 0.076313488 -0.084699862
-0.071157731 0.096465252 0.026110776
-0.06784936 -0.071930222 0.072028272
-0.019088864 -0.11835684 -0.025260426
0.11304743 0.038993649 0.028994642
-0.043548312 -0.091145791 -0.069402389
0.001911704 -0.099882357 -0.071086638
0.09752731 -0.073138759 -0.015368611
-0.060466435 -0.10556809 0.013818154
-0.062769987 -0.10500045 0.0037602577
-0.010556918 0.10633253 0.060446817
0.10358101 -0.010112263 -0.065249532
0.046458088 -0.0039040446 -0.11368692
0.054478716 0.051912405 0.097168028
0.079332866 0.077421613 0.053147275
0.038400676 -0.084150657 -0.080679901
-0.074489079 0.038699739 -0.089383304
-0.076928467 0.09377744 0.016242027
0.06941884 -0.070453197 -0.072806023
0.014819292 -0.089562364 0.082310289
-0.030887719 0.11831609 0.010500096
-0.037913367 0.084958948 -0.080014244
-0.029669456 0.11913719 0.0020156167
-0.098764092 0.05352021 0.048899163
-0.10414393 0.037949748 -0.050995961
-0.10382641 0.026730858 0.059234027
-0.044198353 0.080631755 -0.081214324
-0.062355753 0.054908164 0.089986935
0.018281175 -0.11256921 0.044981889
-0.088531807 0.084335677 -0.00870407
-0.01928472 -0.093236931 0.077165589
0.03922322 -0.11215501 -0.029639162
-0.063208945 0.10500791 -0.0056696013
-0.01120769 0.11311989 0.046221647
0.095093586 -0.024608083 0.073759481
-0.0072781709 0.088973768 0.084339403
-0.0076162755 -0.11463497 0.042640459
-0.042368338 -0.11363593 0.017217625
0.073122844 0.0068357736 -0.09859547
-0.10861912 -0.054817721 -0.013536375
0.11705911 0.0083276704 0.036641035
-0.10909574 -0.046764813 -0.030106694
0.084849656 -0.060521405 -0.065092832
-0.10077111 0.0241668 -0.0654459
0.074770585 0.061503865 0.075642213
-0.10395566 -0.021282896 0.06072247
0.065723859 -0.099224836 -0.030086167
0.11886197 0.011875682 0.029035814
0.079687081 0.065904893 0.066314951
0.097599462 -0.062829435 -0.040008262
-0.028045774 0.0060701743 0.11925393
-0.050161149 -0.061595876 -0.093254223
0.017769551 -0.043938808 0.11312634
0.10136152 0.050213732 -0.048357897
0.042294245 0.048503168 0.10464573
-0.016402176 0.068707563 0.10036085
0.036094792 0.11504982 -0.024194151
0.03928845 -0.052110113 0.10385099
-0.099872187 -0.057910807 -0.040687665
0.074643672 0.089001246 -0.040362909
0.10280347 -0.033327028 0.058567904
0.056666017 0.069346793 -0.084127799
0.024163451 0.12048488 0.00040262192
-0.060485881 0.036013566 -0.10050115
0.093549043 0.029414557 0.074002355
0.077722013 0.021884136 -0.092705682
0.037877664 -0.1132819 -0.027111333
0.11719649 -0.036670327 -0.0053765364
-0.1206909 -0.017910987 0.010354336
-0.075339504 -0.060086109 -0.075484939
0.11889873 0.014568172 -0.028071806
0.11042653 -0.031978585 0.043444369
0.02716968 -0.11701562 0.024777491
0.043072414 0.070776023 0.090749398
0.086624786 0.069744684 0.052320391
0.07711266 0.068942763 0.066283777
0.069732919 0.074147083 -0.068802923
0.026734516 -0.10759377 0.052483879
0.086769164 -0.039538935 -0.077588215
-0.10256617 0.062118761 -0.025381804
-0.048072428 0.019188024 0.11110538
-0.072864711 0.096555717 -0.019667733
-0.090062872 -0.0030502602 -0.083095334
0.11041804 -0.049821921 0.020727415
0.041892529 -0.1101568 0.033010062
-0.034725267 0.11770717 0.0032666698
0.013734959 -0.10598427 -0.060117543
-0.081681408 0.086270772 -0.029022999
0.082621127 -0.048484199 -0.076976955
-0.11377952 -0.044951685 0.0039193127
0.11884689 -0.031121343 -0.0007663928
-0.036899205 0.0017592981 0.11691854
-0.080910012 -0.089181721 -0.02226954
-0.086077407 -0.028645486 0.082203999
0.011618301 0.046449833 -0.11178306
-0.02866251 0.068511494 0.097596347
0.022330731 0.0059253201 0.12030169
0.050501447 0.081906416 -0.076220796
-0.11253454 -0.0038326606 0.047912721
-0.11597363 0.031636782 0.023714647
0.070091017 -0.04569605 -0.089841411
-0.077697292 -0.013933115 -0.093816161
0.064065799 -0.0073629394 0.10438991
0.029772017 -0.021389127 -0.11721072
0.03693708 -0.034744382 -0.11172824
-0.12070087 0.0086457208 -0.016328793
0.085238054 0.00073006004 -0.088528097
0.02374058 -0.08127185 0.088451281
-0.051626239 -0.10304063 -0.041352995
0.069258764 0.037484325 -0.094463602
-0.043658189 -0.037349306 0.10820376
-0.098549001 0.01915694 -0.070281908
0.019719355 -0.09282805 0.077576235
0.089584254 0.075620227 -0.036870711
0.0051841033 0.11740225 -0.035746656
-0.086083762 -0.051370725 0.069471307
-0.093231618 0.062423743 0.049204938
0.086024597 -0.086213864 -0.015906908
-0.017039465 0.06747099 -0.10080366
0.065060042 0.10273281 -0.018407404
0.098458327 0.072313718 0.014638349
0.0096759424 0.086388387 0.086699143
0.036300592 -0.10928588 0.042344265
0.0687254 -0.031378269 -0.096820742
-0.015094012 -0.053406291 0.1091866
0.091604717 -0.045305282 -0.06832689
0.036176912 -0.094450444 -0.069463849
-0.056706026 0.05037763 0.096043274
-0.041073907 -0.043983757 0.10673411
0.054036696 0.027829058 -0.10680768
0.062263928 -0.10291634 0.023979895
-0.0048945504 -0.090886228 -0.082159415
0.068741843 0.088281609 -0.050768286
-0.067202576 0.10124964 -0.016358376
-0.051363751 0.021737985 0.10914572
0.091718011 0.076844521 -0.028638899
-0.03621529 0.098681562 0.0632644
-0.068609297 0.10134477 -0.0079346523
-0.016381668 0.078081302 -0.0929842
-0.051513296 0.068603717 -0.087710805
-0.087298259 -0.0097652525 0.085259885
-0.088097066 -0.071017221 -0.046712503
0.00066904677 0.080441542 0.092769891
0.10094091 0.069688581 -0.008886259
-0.081339531 -0.047389738 0.078035042
-0.075563267 0.093258135 0.019995488
0.047929078 -0.046445094 -0.10270296
-0.0676094 0.10018728 0.021076564
-0.075009666 -0.04503651 0.08476904
-0.032295559 -0.10471547 -0.05483786
0.027538784 0.015999891 -0.11861247
-0.060411774 0.049802311 0.094115049
0.052939378 0.087837972 0.067830801
-0.01010065 -0.12131117 -0.014411893
-0.067831628 -0.00098883361 0.1005567
-0.051687576 0.099396758 0.049911015
0.056023646 0.099788211 -0.044830389
0.07766258 0.075508691 0.058095656
0.066072911 -0.0026573017 0.10339686
-0.096037716 0.058452643 0.048637059
0.028536297 0.10626186 -0.054772153
-0.060896091 0.1043966 -0.020967409
-0.0035801148 0.034593381 -0.11780415
-0.054857641 0.090475626 -0.062144741
0.036268935 -0.00016587228 -0.11736885
-0.11673076 -0.029029727 -0.022968367
0.11863491 0.010474928 -0.030758627
0.099119231 0.012224384 -0.071158625
-0.11423128 -0.037208326 -0.023432873
-0.083132431 -0.040530056 0.080291733
0.015544673 -0.11996879 0.019844517
0.018576518 0.030278571 -0.11758785
0.063525319 -0.061244208 0.085290805
-0.098609872 -0.063675344 0.034819964
-0.011742508 -0.084024504 0.088437244
-0.062391412 -0.0079918876 0.10519199
-0.0083715562 0.0015435889 -0.12236159
-0.091940939 0.056153603 -0.058359854
-0.010826098 0.12212604 0.0016424246
-0.011881135 -0.11266135 -0.043549284
0.046457507 0.11152626 -0.022913549
0.10351659 -0.064491794 0.014856819
0.056069549 -0.076572634 -0.077887744
0.10026914 -0.043829404 0.055958882
0.10462555 0.030831881 0.056647051
0.099209495 -0.028684981 -0.066695765
-0.088668674 -0.051999345 0.065533191
0.10306622 0.055147611 0.038156014
-0.11599928 -0.03913343 0.001558993
0.048356742 0.090742745 0.067398794
-0.04555022 -0.09913443 0.05549654
-0.11483482 0.040680505 -0.012618463
0.022731349 0.020203538 -0.11900458
-0.021695653 0.11767065 -0.027660314
0.025507692 0.1125781 0.042137068
-0.053639252 0.10977253 -0.011891991
-0.032962516 0.10951949 0.043605551
0.013683992 0.12146508 0.012676489
0.035823271 -0.10223667 -0.057433315
-0.1201909 -0.017266877 0.015920512
-0.037304122 -0.11345389 -0.026787698
0.061183285 0.065573789 0.084022582
0.079167329 -0.065301135 0.067452714
-0.037432093 0.11357906 0.026837751
-0.00075462507 0.12275406 0.003029108
-0.072956592 0.025072761 0.095225923
0.096785426 -0.045682564 -0.060459584
-0.060662232 0.10624162 -0.0092567876
-0.03699667 0.070506968 0.093222767
0.024623297 -0.016296141 -0.11923288
-0.063364439 -0.084740765 0.061077036
0.079624437 0.05946169 -0.072400808
-0.096911073 -0.04278262 0.06140241
0.049806207 -0.10501546 -0.03896004
-0.01699613 0.090294071 0.0813393
-0.053752594 0.087630592 0.066986799
-0.0042056078 -0.042706646 0.11482178
0.014624493 0.0499819 0.11117718
0.10090791 -0.007970266 -0.069585547
-0.076337747 -0.028728515 0.091388032
0.076875374 -0.013471417 -0.094838202
0.057835333 -0.053388141 -0.093993604
-0.10981274 0.017623909 0.051233537
-0.10278278 -0.039305024 -0.05356428
0.11196006 0.0036933497 0.050713815
-0.062756702 0.064750589 -0.083219305
-0.060726266 0.0047997907 -0.10642202
-0.022196211 -0.083267912 0.08701095
-0.094590612 -0.077629805 -0.0042165965
-0.025648721 0.091920458 0.07723505
-0.12059104 0.020260878 0.0048463754
0.059586994 -0.023897611 0.10471675
0.022721197 -0.11923482 -0.017119486
-0.0093010347 0.11569657 -0.040019035
-0.070296161 -0.088260129 0.047322396
-0.11527416 -0.032862455 0.025059804
0.081490159 -0.071293198 -0.058028489
-0.1032853 0.017910771 -0.063501403
0.1189876 -0.022167489 0.020278305
-0.03142409 0.063357092 0.10013302
0.044317316 -0.10389521 -0.047464207
0.077398106 -0.046211205 0.083387308
0.068717763 0.062847264 0.080142424
-0.060217455 0.04491774 -0.096911415
0.11827186 0.033894666 -0.00088347495
0.10708032 -0.054479375 0.023038018
-0.034540895 -0.11675192 0.013498452
-0.091700241 0.026166864 -0.07691747
0.041848928 0.11440567 -0.016513545
0.080833599 -0.064911418 -0.065959491
-0.044026304 0.083985694 0.077874511
-0.11090942 0.049925141 0.014973307
-0.058745109 -0.1060309 0.017346164
0.026488144 0.085820772 0.083669625
-0.046336275 0.077890776 0.082646281
0.070540413 -0.098584443 -0.019564837
0.11311189 -0.011191316 -0.046861447
0.033327028 0.11399104 -0.026795201
-0.0090755913 -0.11955173 0.025326811
0.047607932 0.08897198 0.070208505
0.081437014 -0.084655911 -0.035869211
0.068526439 0.094009735 -0.039782166
0.065952174 0.094217025 0.043420479
0.091522731 0.025954522 -0.077789396
-0.042937696 0.066988744 0.09320195
-0.016761804 -0.061466068 -0.10483024
0.002738832 -0.097673871 -0.074146509
-0.06411095 0.091527916 -0.050481975
-0.00019766716 0.041044854 -0.11575408
0.087086059 0.084718727 0.0093823951
-0.048238233 -0.021056347 0.11061437
-0.062191222 -0.029199503 -0.10145371
-0.0036843368 0.068645559 0.10164323
-0.066564262 0.09089952 0.048512347
-0.08180815 -0.028806068 0.08644934
0.0081930943 0.074469008 -0.097313717
-0.05685189 -0.014117211 0.10764343
-0.04238509 0.070890255 -0.090648346
0.055180289 -0.061742827 0.09056668
-0.092704378 -0.052457638 -0.059999719
0.050280131 0.11206978 0.0017818436
-0.07989645 -0.025483735 -0.089325674
-0.041958824 0.032172196 0.11056723
-0.028429771 -0.008111313 -0.11872993
-0.079313755 -0.038107015 0.085212342
0.033433761 -0.051084213 -0.10633893
-0.033977341 -0.059174377 0.10183793
0.03757387 -0.086180687 0.078755245
-0.0071853264 -0.025663786 0.1197359
0.0079474282 0.036956482 0.11673523
-0.11987722 0.024464168 0.0004299134
0.0022503722 -0.092942595 -0.080011629
0.047355674 0.044936232 -0.10414393
0.0046697096 -0.076305725 0.095677055
0.019792207 -0.10139257 0.065872945
-0.09931758 0.071412198 0.0084378794
-0.021204894 0.12060154 0.0089012943
-0.070770271 -0.099425927 -0.0089486055
0.0092041362 0.10432477 -0.064346299
0.034047682 -0.056944523 -0.10312133
-0.060706835 -0.10369779 -0.022616804
-0.093918964 -0.064386152 -0.044889033
-0.0034229546 0.11603437 -0.039940961
0.0027443245 -0.12257389 0.0019299164
0.1148916 -0.010061778 -0.042683959
0.034820184 0.036347546 -0.11206912
0.0071904152 0.096115805 -0.076233365
0.063834913 0.10163527 -0.026474439
0.010631802 -0.10659231 -0.059654377
-0.025107708 -0.11941908 0.01118055
-0.10208446 -0.026199974 -0.062288247
-0.027777873 0.1115224 -0.043281205
0.0093223713 0.083234064 0.08976303
-0.049426891 0.08395002 0.07450974
-0.1189988 -0.0207811 -0.019846253
0.062701419 0.027861945 -0.1020045
-0.040016353 -0.085675552 -0.077955768
0.067811213 -0.097430356 0.030627094
0.020351101 0.0044761226 -0.12104796
-0.10215668 -0.0012067556 -0.067539319
0.013225045 0.12192025 -0.006610319
0.031973377 -0.11838755 -0.002267193
-0.070745774 0.057196863 0.082118466
-0.056288827 -0.10187311 -0.037905522
0.038345389 0.045491539 -0.10751562
0.023763403 0.016546048 -0.11937471
0.042407013 0.11526216 0.0017272346
-0.11650759 0.012628458 -0.035319477
-0.071013749 -0.098851264 0.013352573
-0.015711349 0.099239461 -0.070618168
0.097700402 0.073816486 0.011864286
-0.071778104 -0.0070527643 0.099000052
0.07438574 0.082298063 0.053024586
-0.045184854 -0.10760217 0.037185244
0.035984568 -0.11347196 0.029666647
0.047262963 0.093151666 -0.064488076
-0.079786561 -0.037338309 -0.085062474
-0.0020929815 -0.049755193 0.11204226
-0.105234 0.062710397 -0.00488149
-0.03107583 -0.1142078 -0.031375661
0.095577367 -0.050413541 0.058339372
-0.028906316 0.0098844394 0.11869609
0.071746863 0.095093034 -0.030638598
-0.056646872 0.069746353 0.083391868
-0.035480496 0.0082009807 0.11703791
0.059784483 0.097892784 -0.044151552
-0.12121104 0.0044718012 -0.014837313
0.042346548 0.10229634 0.053360108
-0.022549521 -0.048432104 0.11035637
-0.084075615 0.071420379 0.053465456
0.11102841 0.037087284 0.037728664
0.048895996 -0.019060828 -0.11103129
0.096695565 0.076057218 -0.0010406375
-0.086207762 -0.034997463 -0.079533771
0.00011192146 -0.12181046 -0.013915859
0.025639078 -0.025804631 -0.11727235
-0.057064451 -0.10620677 -0.019563749
0.079712234 -0.086503401 0.034069777
0.12027361 0.0063650608 -0.024472382
-0.058461037 0.080256529 0.072044238
-0.10823878 -0.055486202 0.013143366
-0.056867741 -0.10010233 -0.041664958
0.10465989 -0.064391553 0.0020087548
0.090834185 -0.025521494 -0.07878314
0.11778441 -0.034852952 0.002364248
0.055335611 -0.082946204 0.071341529
0.022406891 -0.029755548 0.11679056
0.10741872 -0.056883931 0.01499426
-0.018792534 0.059282385 -0.10569848
-0.042222898 -0.10861019 -0.037545063
0.11986624 -0.012462698 0.022987967
0.027004335 -0.087679416 0.081291206
0.092451595 -0.073772788 -0.033073127
0.0030727736 0.062093891 0.10589378
-0.043437626 0.060690992 0.097079664
-0.082487859 0.090002455 0.011476301
-0.034126829 0.085058369 0.081618592
0.1084837 0.056513868 -0.0125091
0.11540908 0.042373203 -0.0042677745
-0.058639165 -0.025343008 0.10455631
-0.054624319 0.091574885 0.060669191
-0.05520054 -0.092832997 -0.057864778
-0.084080726 0.0011490807 0.089050464
0.1161036 -0.037875146 0.013353713
-0.10394867 0.0099228695 -0.064156845
-0.070456646 0.024153642 0.097324222
-0.1111851 -0.051093534 0.0018562675
0.04407566 -0.10611653 -0.042418778
0.11456218 0.041853987 0.016278107
-0.043609973 0.10178763 -0.053018436
0.087360881 0.065448798 -0.056681618
-0.027075317 0.021456771 0.11769547
-0.057386573 -0.093146428 -0.055146545
0.054504108 -0.044644095 -0.10031395
-0.023137787 -0.021304466 -0.11832491
0.044129126 0.026681073 0.11138621
0.10642516 -0.025696956 -0.055892564
-0.01529596 -0.12094949 -0.012483813
0.080663987 -0.012034349 -0.091946542
-0.018912591 -0.019997723 0.11948131
0.093903005 0.076686136 -0.020899765
-0.11553939 -0.040434308 -0.0026393496
0.047461867 -0.10380952 -0.044753186
-0.04126548 -0.083315358 -0.079870403
-0.1071769 -0.05088719 0.030207299
-0.023882378 0.11282434 0.041494817
0.099540062 -0.070197888 -0.016223453
0.097984932 -0.022334337 0.07069131
0.022598404 -0.12032994 0.0047621895
-0.058164239 0.011193804 0.10733642
0.082592413 0.03156767 -0.085425787
0.06616649 0.075201534 0.071252048
-0.01746734 0.10044766 0.068376608
0.043165147 -0.037442707 0.10864668
-0.032666318 0.010835208 0.11630292
-0.078244433 -0.093094312 -0.014133237
0.00041573355 0.059329204 0.10735884
-0.076088019 -0.082013406 -0.049860008
0.098406553 0.071591891 0.018162213
0.10015173 0.053766854 0.046716619
-0.084854878 -0.041773789 -0.0775453
0.0077950484 -0.10367513 -0.06504263
0.11013494 0.0082680359 -0.053805076
-0.00024468219 0.08149638 -0.091794148
0.0026869855 -0.039950103 0.11594359
-0.052631415 0.0098384395 0.1101767
-0.024167418 0.08643461 -0.083630159
-0.067629591 -0.074144661 -0.070242681
-0.044328984 0.1088597 -0.035409935
-0.10124879 0.018924393 -0.066403165
-0.034856979 0.11735976 0.0087228864
-0.040551845 0.11449247 0.017196137
-0.00047828164 -0.020367242 -0.12098433
0.074505202 -0.040303566 -0.088941798
0.036994491 -0.039315566 -0.11015004
0.12275583 -0.0044451281 -0.002602309
-0.073100805 -0.013492368 -0.097186908
0.06224063 -0.1037 -0.020860232
0.08436235 0.032026269 0.083314285
0.03394413 -0.093125112 -0.072343282
-0.052790109 -0.10843721 -0.019323736
-0.047830783 -0.060597092 0.095138595
-0.063225634 0.033539899 0.099427685
-0.094077535 -0.021417685 -0.075407445
0.016977476 -0.10157941 0.064545639
0.017626597 0.091777556 0.07966876
-0.048605513 0.11064313 -0.021651901
-0.11528108 -0.040947929 0.0043308157
-0.11279589 0.043014891 -0.020834036
0.049297359 0.032404028 0.10768238
0.026561484 0.11416087 -0.037131488
0.047018614 0.033061914 -0.1085804
0.10187489 -0.06729576 0.013719594
0.030361779 0.050042756 0.10795937
0.03731481 0.081760876 -0.083781928
0.086093314 -0.032924913 -0.079367325
0.10030778 -0.069846712 0.012298295
0.066037133 0.032672249 -0.098444909
-0.094673008 0.049561866 -0.060134299
0.016454728 -0.12048916 -0.01539664
0.095833376 -0.0059516206 0.07675451
-0.0022262647 -0.0018259436 0.122611
-0.10425201 0.05358576 0.035605602
-0.10123727 -0.0327655 0.060389951
0.099995784 0.027292036 0.065949455
0.084158421 -0.077777773 -0.044218346
-0.040638812 0.062383123 -0.097482279
0.088562973 0.055523895 -0.064728573
-0.033061065 0.10471465 0.05459414
0.073191807 0.0097602978 0.09742263
-0.055911001 -0.083457217 -0.069929868
0.017004495 0.11018021 0.051630478
0.10369585 0.051107459 -0.042001031
0.0099693928 -0.02957017 -0.11866136
0.10386399 0.061804794 0.023102831
-0.12153854 0.0093963221 0.01104838
0.021444615 0.08729028 -0.083734125
-0.068960942 -0.097184949 0.022177819
-0.078598648 0.061360382 -0.069856018
0.10998249 0.04987929 -0.023490537
0.079512589 -0.055312455 0.07553006
-0.046307851 -0.012811787 0.11273222
-0.11975826 -0.0052492246 -0.024546254
-0.063755721 0.10437007 0.0089328438
-0.10398673 -0.058644798 0.027075678
-0.10661559 0.060388111 0.0040642004
0.058085695 -0.061027199 0.089271531
-0.084139138 0.036889128 0.081162795
-0.05819197 0.10223428 -0.034741402
-0.091798678 -0.019965246 0.07838174
-0.095379025 -0.050255157 0.058064841
0.094237491 0.069284163 0.038039029
-0.10552777 0.027627222 -0.05416967
-0.083167896 0.048896261 0.075623527
0.016750351 0.10875321 0.054322917
0.017197102 0.0033214316 -0.12153129
0.079517461 -0.091444127 -0.016135059
-0.11030586 -0.052436098 0.0072573386
-0.050936859 -0.031228751 0.10696385
-0.054971408 0.038605593 0.10233691
-0.051243324 -0.1059069 0.034011308
-0.085556529 -0.087409467 0.0020470917
-0.1146988 -0.042162821 0.0073274374
0.0010228681 -0.12208087 0.011169713
0.063108772 0.08531151 0.062158447
0.080751941 0.07438723 -0.055307299
-0.020179942 0.033575408 0.11625178
0.05617499 -0.022329442 -0.1069008
-0.061373897 -0.050463781 0.093101889
-0.062548846 -0.092338607 0.050248593
-0.045173265 -0.024837904 -0.11116323
-0.1195014 -0.025991432 -0.0060015172
0.10624347 0.059448786 0.017726637
0.01639623 -0.048846923 -0.11139311
-0.038602114 -0.11583196 0.0095114987
-0.10183645 -0.008052282 0.066960596
-0.06445805 -0.043342732 -0.094809622
-0.025057694 -0.11619489 -0.029574171
0.061964862 0.078211851 0.071785621
0.077722281 0.00038670748 -0.095232323
0.070131741 -0.10071796 -0.0024116933
0.091692202 -0.080708839 0.012136118
0.085238591 0.060712211 -0.064626679
-0.063167118 -0.096460253 0.04113945
-0.076950036 -0.046070911 0.081941813
0.099958673 -0.034831382 -0.061262891
0.07926812 -0.084464349 0.039765961
-0.087096266 0.017112933 -0.084483393
-0.1017726 -0.0042978823 -0.067878053
-0.024042739 0.10227767 -0.06263493
-0.043566309 -0.11052579 0.029255491
-0.056904174 0.049481831 -0.096694902
0.11579866 -0.032063805 -0.025675073
-0.018471751 -0.12052476 -0.012120154
0.022936527 -0.10404214 0.060756542
-0.021049771 -0.075905792 0.093797065
0.02682464 -0.11830274 0.018088708
-0.10164869 -0.058373705 -0.035367668
0.062050804 -0.083931446 0.06457743
-0.045282088 -0.11368103 0.0022172742
0.059619416 -0.088292837 -0.06104783
0.11666888 -0.006506525 -0.038366556
-0.11036257 0.026427411 -0.046146527
-0.010767322 0.055141665 -0.10910676
-0.019502973 -0.12093852 0.0031684656
-0.071719155 -0.022795349 -0.096781597
0.012908813 0.10691861 0.059208177
0.11588401 0.04130771 -0.00016302988
-0.10268736 0.066930182 -0.0023838878
-0.049625047 0.080459483 -0.078236654
-0.084672891 0.061144017 0.064206138
-0.098519146 -0.0041166916 -0.070882685
-0.052057415 0.032764353 0.10594354
-0.013285497 -0.010047749 -0.12143077
0.10950448 -0.053719655 -0.015296221
-0.03251246 0.094485469 0.071264207
0.014498124 0.090625443 0.081605718
0.052592039 0.11021274 -0.014209401
-0.039189115 0.11615504 0.0064311475
-0.016285973 -0.12143378 -0.0030121841
0.070568405 -0.055617891 -0.083684511
-0.050486717 0.065706097 -0.09045025
-0.097061262 -0.068295121 -0.029987134
0.042021386 0.11209104 -0.027654145
0.1186244 0.016348921 0.027900785
-0.010214437 -0.035066612 -0.11708175
-0.035224415 0.083265208 -0.082943864
-0.10639121 0.058032222 0.01822409
0.078641087 0.037032686 -0.086984701
0.08725927 0.039635725 -0.077036142
0.0010926651 -0.045462586 0.1138909
-0.019837223 0.12015333 0.015465017
-0.051539294 0.051523812 -0.098706827
-0.069832414 -0.093968615 -0.03580936
0.065567926 0.021142788 -0.10183282
-0.0088944249 -0.089142866 0.083651662
-0.02884753 0.10361332 0.058961049
-0.039758578 0.098138116 -0.060116231
-0.0099135339 -0.08901602 -0.0837126
0.053083271 0.053591035 -0.095662698
0.11709524 -0.032351419 0.018102584
0.020706143 0.027686991 -0.1178678
-0.10770998 -0.044340409 -0.037740551
-0.10616743 0.06090153 0.007062776
0.043319825 0.010676183 0.11421567
0.10485853 0.03768567 0.051835112
-0.0011741747 0.090910248 0.082559496
0.0590505 -0.097098708 0.046182916
0.095748454 -0.036418773 0.067852132
-0.11745764 0.031272583 -0.014247853
0.11681946 0.024676763 -0.023714881
0.12149168 -0.0044957399 0.016413499
-0.026553577 0.052489735 -0.10763645
0.069223762 0.098416097 -0.02281215
0.11692017 -0.027400799 -0.026476562
-0.095869854 0.074454971 0.017177835
-0.054418609 -0.012848094 0.10904155
-0.1198068 0.015345953 0.020136677
-0.10920536 -0.049904451 -0.023881853
0.083983563 -0.072312906 -0.052976824
-0.012584288 -0.060325731 0.10598216
0.03601031 -0.077406451 -0.088132381
-0.053973474 0.10986953 -0.0088743754
-0.080644324 0.055953078 0.073295847
-0.11406674 0.044357888 -0.0055370554
-0.11008397 -0.020182811 0.049471635
-0.11474179 -0.04164543 -0.0096530914
0.11053403 0.032174595 0.043230001
-0.053229824 0.10231514 0.041647363
-0.01869598 -0.11951526 0.019622236
0.09397997 0.04970824 -0.061875939
0.039608944 -0.094593436 0.067351066
-0.094348229 -0.075165503 -0.021159593
-0.096622445 -0.039697751 0.063802421
0.0012988602 0.032482289 0.11831339
0.025132244 0.10281473 -0.062508039
0.11940496 -0.02467797 -0.015660878
-0.0099550858 -0.11903411 -0.027051251
-0.088898838 -0.074539885 0.038889416
0.019153951 -0.07854186 0.091913097
-0.017302804 -0.0062107444 -0.12113599
0.019528855 0.11679561 0.032789025
-0.069329359 -0.10086277 0.00062715262
0.089428537 -0.07221286 -0.043243475
0.083361328 -0.02576714 0.086354829
-0.079454318 0.074787132 -0.055858493
0.095626034 0.071028315 -0.030805767
0.10815965 -0.049751289 0.030232606
0.0086367745 0.0084459558 0.12200477
-0.078570426 0.094160862 0.001169268
0.10815104 0.025373869 -0.052625075
0.035056248 0.024335615 -0.11513333
-0.11239972 -0.034316644 -0.034474194
-0.067415878 -0.086076893 -0.054590799
0.11430012 -0.024125874 -0.03847295
-0.033859141 -0.10142188 -0.059299871
0.047703393 -0.096222967 0.059357852
-0.027304981 0.053175472 0.10703272
-0.026757615 0.11811889 -0.02038002
0.052065045 -0.11093538 -0.00631034
0.085768051 -0.085553013 -0.012553141
0.067986682 -0.096655458 -0.033293381
-0.073682241 -0.085996568 -0.046311326
-0.10490619 0.055775993 0.030009028
-0.094916359 -0.059475452 0.046874743
-0.017364964 0.053438954 0.10906261
-0.089888424 0.002075389 0.083090052
-0.075497523 -0.08009702 0.053451661
0.041388005 -0.11318661 -0.022349834
0.051618777 -0.083562672 0.073558718
0.087721132 -0.071951166 -0.047019169
0.089579381 0.078092404 0.031884816
-0.10858767 -0.040792376 -0.039167829
0.068351515 -0.095024854 0.036323443
-0.088384405 0.080687948 0.026735462
0.071747825 0.070038684 -0.071052551
0.044836573 0.10488067 -0.045814373
-0.029077027 -0.02388943 0.11663753
0.03722471 -0.072990537 -0.091310516
0.047164589 -0.10219483 0.048864827
-0.103012 -0.0026492178 0.065662205
0.021540798 0.039786749 -0.11421865
0.071752384 0.027119212 0.096001118
0.095400006 0.054706581 0.054708783
-0.077895112 -0.0039566457 0.094464682
0.098890193 -0.0067729279 -0.072506152
0.02000514 0.097492673 0.07202813
0.11021622 0.054302998 0.005635336
-0.074267983 -0.078472286 0.057356786
-0.021707838 0.042875804 0.11283377
-0.097241528 -0.0086378381 0.073422313
0.047861457 0.1107359 0.021735117
0.10389394 0.06479267 -0.010984618
-0.022878671 -0.11601578 -0.032092974
0.11639299 -0.033581316 -0.021137502
0.039278097 -0.03561493 0.11070897
0.079093352 -0.090451501 0.023932299
0.082529835 0.086796619 -0.027880434
-0.092137329 0.071956657 0.036711529
-0.095732547 0.075360559 0.013731845
-0.10464296 -0.043062128 0.046742722
-0.037085775 -0.079772227 -0.085342012
-0.087074369 0.038936801 -0.076966047
0.011772787 -0.11285721 0.046316586
0.072547421 -0.029290378 -0.094707146
0.0090417862 0.097860686 0.073693812
0.05686054 -0.033480875 0.10357244
-0.097535022 -0.043067284 -0.059846297
-0.065548241 -0.071796134 0.074274957
-0.076079682 0.031222276 -0.090908259
0.050164465 -0.058860406 -0.095088214
-0.086199366 -0.079936996 0.033894163
0.030210048 -0.054308347 0.10567378
-0.00383772 0.080609135 0.092540696
0.015250899 -0.11726355 -0.032128029
0.071811087 0.07008227 0.070951805
0.059578437 -0.045984782 0.096656784
0.082350217 -0.090887941 0.0047906879
-0.016384253 -0.0031403378 -0.12143058
0.043301985 -0.11446847 -0.0082667135
-0.037008677 -0.11228244 0.02918881
-0.0013552131 -0.014269687 -0.12184365
-0.071008049 -0.062083445 -0.078075647
0.089936383 -0.080687553 -0.022204503
0.091184348 0.029758982 0.076755911
-0.066121615 0.015543975 -0.10211177
0.047680754 -0.011335604 -0.11258394
0.042409793 -0.016229272 0.11402632
-0.074332543 0.043320172 0.087274015
0.10797416 0.057433434 0.01327011
0.058600038 0.096337415 0.048951257
-0.014167979 -0.035841413 0.11640858
0.017438808 -0.095644966 0.07467708
-0.10878518 0.054464974 -0.014419112
0.043413132 0.033458032 -0.1099233
0.008480167 -0.10376849 0.064684249
-0.10831944 -0.015588574 0.05457709
-0.047244091 -0.028387569 0.10938753
-0.061667431 -0.037773244 0.098908328
0.072899118 0.095148541 0.027253512
0.051268458 0.078201301 0.07977505
-0.052622125 -0.1096092 -0.012090884
0.084942929 -0.011663243 -0.08804474
0.074424632 -0.076103933 -0.061350182
-0.016472863 0.12142245 0.0082946718
-0.058699772 -0.09896335 0.041780792
-0.0027791415 0.055561461 0.10945729
0.071057647 -0.062146146 -0.07854268
0.11975671 -0.01049076 -0.025989607
-0.049075622 -0.10819592 0.027385687
-0.092392199 0.066336103 -0.045638718
0.068131506 -0.083648227 -0.055695839
0.036195956 0.10971411 -0.042066522
0.064321458 0.079123251 0.068666749
0.0075465622 0.057243235 0.10832384
-0.026832659 -0.023028389 -0.11722748
0.070123278 0.053934149 0.085253581
0.096687101 0.0091606602 -0.075009681
-0.05509682 -0.084031321 0.069398165
0.029560907 -0.11903449 0.001212243
0.03868955 0.08647839 -0.078212768
-0.043824937 0.091853358 -0.068651222
-0.054248758 -0.056394272 0.094230838
0.096441969 0.076187439 0.0052417777
0.033156928 -0.060299423 0.10137756
0.062203363 -0.09155298 0.052904282
-0.086207941 0.077451147 0.039957996
0.002545008 0.12160672 -0.017383628
0.091065392 -0.0079611912 0.08212129
0.0068930374 0.12250356 0.007407207
-0.10657387 0.036108635 -0.048602909
0.0031717541 -0.037548959 -0.11680247
0.036948286 0.11097663 -0.03792195
0.079683073 0.039045863 0.084930375
-0.067320511 0.031656049 -0.09750475
0.11315699 0.047425248 -0.0086924843
-0.027439039 0.11462463 -0.034447014
0.029675966 -0.076067269 0.091246888
-0.10830352 0.057191946 1.950562e-05
0.010690726 0.042634018 -0.1146277
0.044071693 0.10755438 0.039743003
0.084049478 0.057946973 -0.068572097
0.096255757 -0.056266423 0.051611446
0.079340048 0.050599076 0.078805968
