# .PCD v0.7 - Point Cloud Data file format
VERSION 0.7
FIELDS x y z normal_x normal_y normal_z
SIZE 4 4 4 4 4 4
TYPE F F F F F F
COUNT 1 1 1 1 1 1
WIDTH 725
HEIGHT 1
VIEWPOINT 0 0 0 1 0 0 0
POINTS 725
DATA ascii
-24.888338 29.150286 10.336447 0.28536522 -0.95209146 -0.10994778
-26.61762 28.381573 12.004415 0.29164171 -0.93957001 -0.17931324
-1.0884744 33.444012 3.1862438 -0.00075258134 -0.99403441 -0.10906436
-16.169592 31.717016 7.1027236 0.16724041 -0.97481215 -0.14755332
-23.0019 29.815872 9.3702087 0.27146709 -0.95502287 -0.11931936
-23.942228 29.075897 12.552363 0.23715493 -0.94962078 -0.20488544
-29.011232 27.440136 12.850086 0.35385749 -0.92368454 -0.14694095
-19.279737 30.552412 10.42366 0.17388514 -0.96300173 -0.205892
-21.521553 29.913759 11.141158 0.22380185 -0.95752102 -0.18184128
-25.639824 28.01185 15.124602 0.26186723 -0.93568772 -0.23646145
0.56243682 33.148994 5.014595 -0.025254773 -0.97977889 -0.19848287
-11.884631 32.297905 6.8003111 0.087109499 -0.98205698 -0.16726011
6.2397676 33.137302 2.6153166 -0.068629973 -0.9911046 -0.11402451
-9.4226894 32.228035 8.1196661 0.070964888 -0.97734874 -0.19938268
-57.955551 -34.151089 48.134441 -0.53206521 -0.81255591 -0.23803256
-3.8654063 32.740379 6.9464502 0.011030515 -0.97503942 -0.22175744
-11.600293 31.876329 9.0425053 0.080903307 -0.96962583 -0.23082553
-27.633734 27.488083 14.64098 0.28946847 -0.9331041 -0.21336517
-28.21542 26.72439 16.952192 0.28914133 -0.92661625 -0.24037407
-57.092659 -33.963856 47.611977 0.26023781 -0.70333612 -0.66150928
-9.816556 31.941832 9.2563896 0.046271868 -0.96527559 -0.25710323
-21.295639 29.47612 13.223047 0.18104845 -0.9515456 -0.24856073
-22.63814 28.333229 16.388151 0.1722222 -0.94249892 -0.28641838
-57.274673 -34.989929 49.479801 -0.37623391 -0.86987859 -0.31899711
-5.3192768 32.195099 8.8248072 0.025556138 -0.96528333 -0.25995171
-7.1745291 32.462711 7.7227249 0.039847415 -0.97235531 -0.23008108
-7.3044848 31.724466 10.372459 0.023922717 -0.95892769 -0.28264004
-20.621992 29.245243 14.463501 0.13935167 -0.94759989 -0.28746396
-11.711141 31.267414 11.37727 0.069949426 -0.96078271 -0.26833487
16.790096 31.715475 4.8639412 -0.16002117 -0.9680149 -0.19323653
-18.480106 29.8972 13.248316 0.16488494 -0.95121014 -0.26079157
-10.838165 30.569025 13.737364 0.035441834 -0.94085586 -0.33694825
-25.678171 26.80127 19.148378 0.20935602 -0.92346692 -0.32152602
73.060165 -23.896984 12.225738 0.54064661 -0.5902853 -0.59938663
-5.3089948 31.123074 12.239085 -0.010747421 -0.94343364 -0.33138719
-23.767775 27.379805 18.69356 0.17585385 -0.93334788 -0.3129493
-54.857773 -36.869118 52.348988 -0.5141018 -0.83455229 -0.1980449
-13.255897 30.47559 13.752375 0.078738518 -0.94115037 -0.32868859
-12.747952 29.888737 15.076533 0.064371496 -0.93559641 -0.34715366
-6.9719725 30.710707 13.719092 -0.02503589 -0.93644911 -0.34990904
-17.009745 29.178093 16.081324 0.089017794 -0.94008577 -0.32911184
-20.892015 28.23361 17.311974 0.12646846 -0.93353069 -0.33544919
-1.7476695 31.534647 10.929995 -0.018995926 -0.94445503 -0.32809132
-29.550636 24.564892 22.940943 0.24897985 -0.9105491 -0.33001423
-52.547977 -38.31826 53.790676 0.144942 -0.65688014 -0.73993266
-14.29686 29.044851 17.277958 0.07178615 -0.93752778 -0.34042379
-51.640888 -38.805714 54.826729 0.22444892 -0.7683053 -0.59944105
-19.774948 27.50518 19.7745 0.11093308 -0.92578208 -0.36141592
-29.431137 23.822361 24.774139 0.24045253 -0.89687198 -0.37121844
8.0385857 30.350019 12.628534 -0.068193763 -0.93140161 -0.35754809
-12.537584 28.345367 19.168488 0.025975699 -0.91095948 -0.41167718
-21.138554 26.455528 22.146587 0.10952903 -0.91952628 -0.37745848
-6.7872491 29.576895 16.266413 -0.030227177 -0.918751 -0.39367881
-50.459476 -39.988934 56.227524 -0.028382925 -0.74976182 -0.66109878
10.194495 30.590847 11.625559 -0.08939708 -0.9366582 -0.33864376
-9.0065107 28.947895 17.838642 -0.01194222 -0.90510929 -0.42501131
-22.798187 25.369938 24.119101 0.11415774 -0.9094243 -0.39989409
-24.258635 25.819384 22.576836 0.1469087 -0.91681772 -0.37129924
-16.431833 27.387102 20.930374 0.06441322 -0.91252732 -0.40391201
-50.981537 -40.114685 56.879578 -0.50384474 -0.85527861 -0.1209913
-24.908587 24.158642 26.260386 0.13761272 -0.9063338 -0.39952689
5.4433718 29.408207 15.48031 -0.075331107 -0.89682907 -0.43591604
-10.517823 27.751686 20.401806 -0.010468991 -0.90251338 -0.43053442
-14.073469 27.151457 21.55792 0.025989823 -0.9054324 -0.4236941
13.668103 29.357695 13.639487 -0.10168318 -0.92967504 -0.35406908
-28.30232 23.540648 26.248911 0.20319857 -0.90179807 -0.38140601
-30.14617 22.396446 27.884306 0.24080242 -0.88921088 -0.38899621
3.5266721 28.628851 17.280577 -0.064941391 -0.87905645 -0.47227368
5.8169603 28.352587 17.460087 -0.073320813 -0.87024188 -0.48713779
-10.126218 26.963984 22.004631 -0.033076372 -0.8887378 -0.45722112
-13.815833 26.54166 23.005816 0.010162705 -0.89785725 -0.44016942
-16.496544 25.293974 25.335321 0.027150376 -0.89303833 -0.44916058
-0.94566745 27.86095 19.303896 -0.066245392 -0.86553597 -0.49644649
-26.435099 23.003551 28.268118 0.14817411 -0.88905221 -0.43316358
13.424376 28.905701 15.004938 -0.091244467 -0.90796882 -0.40898308
-5.8073683 27.793816 20.02174 -0.049586818 -0.88001245 -0.47235489
-22.102152 24.58532 26.075129 0.078790918 -0.90233052 -0.4237825
9.6516571 28.734829 16.051163 -0.075078502 -0.89557981 -0.43852013
9.0387344 28.110106 17.431427 -0.078450844 -0.8656525 -0.49446052
0.43667507 28.394964 18.151253 -0.059736606 -0.88685906 -0.45816207
-10.208824 26.218164 23.394186 -0.04481747 -0.86753702 -0.49534914
4.9272733 26.292006 20.938828 -0.074470505 -0.83590579 -0.54379749
-3.7433066 26.653519 21.681784 -0.085094444 -0.87071258 -0.48437434
-14.407657 25.598225 24.736868 -0.025736105 -0.87602288 -0.48158237
-28.692198 22.130335 29.12826 0.17098656 -0.88555914 -0.43191275
71.308517 -30.367025 22.779612 -0.24154513 -0.82180369 -0.51603746
16.81008 28.340527 15.429263 -0.11221968 -0.90181619 -0.41729397
-6.6773825 26.70488 22.139977 -0.063188069 -0.87020481 -0.4886215
-10.897763 25.258137 25.09164 -0.053082872 -0.86096805 -0.50588173
-18.824196 24.650984 26.424835 0.047146223 -0.89281458 -0.44795021
-4.2449074 25.952742 23.149679 -0.0924467 -0.8485207 -0.52102417
-1.7390181 26.052177 22.385935 -0.11164368 -0.84342885 -0.52551264
-14.45433 24.613302 26.604937 -0.035335999 -0.86927569 -0.49306303
-17.700891 23.870937 27.899031 0.008378665 -0.87912989 -0.47650862
-22.787363 23.578447 28.133009 0.089404397 -0.89363962 -0.43978986
70.963326 -31.246161 24.540531 -0.2459964 -0.82655042 -0.50626099
8.3061028 26.446068 20.27125 -0.074442632 -0.83925188 -0.53862286
0.77192336 25.609362 22.448641 -0.095117636 -0.83979625 -0.53450429
-7.4938059 25.171776 24.811937 -0.075540461 -0.843651 -0.53155106
-10.455587 24.388069 26.424942 -0.079140447 -0.8467555 -0.52606261
17.187782 26.575882 18.787735 -0.079729415 -0.87138575 -0.48407656
14.022244 25.677446 20.806545 -0.058258452 -0.83633894 -0.54510838
10.763727 26.945227 19.072063 -0.071530029 -0.85047144 -0.52113503
-3.9278038 25.063847 24.290016 -0.10831369 -0.82160544 -0.55967182
-19.622717 23.383694 28.816017 0.030270789 -0.89070749 -0.45356774
-21.261309 22.620533 30.192627 0.054145582 -0.87603515 -0.47919795
14.726346 26.614069 19.092224 -0.077871211 -0.86688054 -0.49239641
-0.91150814 25.040815 23.850443 -0.10522515 -0.82655388 -0.55293447
-8.4153032 23.018812 28.285332 -0.10024308 -0.83550924 -0.54025507
-25.564922 21.243608 31.965006 0.12208965 -0.88414782 -0.45097312
-26.705488 19.6481 34.744041 0.12495724 -0.86606771 -0.48405829
11.817183 25.13401 21.706758 -0.063734636 -0.82447815 -0.56229329
7.4742408 25.290155 22.036547 -0.072027981 -0.81861037 -0.56981492
2.5702538 25.04402 23.162832 -0.093498856 -0.82699335 -0.55438256
-6.1031852 24.041403 26.308949 -0.10459685 -0.8303349 -0.54736042
-16.047289 23.420769 28.757401 -0.025719674 -0.86457074 -0.50185251
-12.779086 23.342222 28.558334 -0.07619442 -0.85154724 -0.51871151
-19.497648 22.610741 30.268332 -0.015509448 -0.86856312 -0.49533585
9.4982672 24.664295 22.699436 -0.071631446 -0.81860346 -0.56987482
1.6200614 24.008459 24.76425 -0.10542127 -0.81051397 -0.57615417
0.86897725 23.059624 26.328487 -0.098817758 -0.83486819 -0.5415073
-2.2377944 23.761463 25.857985 -0.11070888 -0.8238548 -0.55588371
-11.076383 22.442915 29.667778 -0.10205399 -0.83874148 -0.53488106
-18.429012 20.882128 33.298061 -0.033703156 -0.85108447 -0.52394593
15.561242 25.04402 21.433987 -0.053247791 -0.81972164 -0.57028157
6.1174045 24.183332 23.798616 -0.082420871 -0.81736839 -0.57018924
-14.621728 22.187141 30.668106 -0.064361311 -0.85561812 -0.51359046
-20.623934 21.732273 31.740953 0.035725206 -0.87330163 -0.48586819
3.5329995 23.286283 25.442331 -0.089828603 -0.83670801 -0.540232
-4.4668555 22.690649 27.95001 -0.11576544 -0.83200186 -0.54255998
-20.993889 20.172497 34.561089 0.012703442 -0.85949981 -0.51097822
14.766753 23.459557 23.873608 -0.052400168 -0.81667674 -0.57471162
10.648714 23.113577 24.739788 -0.07515505 -0.8214134 -0.56535971
3.9061999 22.626472 26.600611 -0.087242827 -0.8423903 -0.53175855
-8.3834238 21.540356 30.463263 -0.10643551 -0.83755785 -0.53588086
-15.264621 21.228849 32.388176 -0.075955391 -0.84526724 -0.52891785
7.3167472 22.716711 25.763628 -0.081483409 -0.83132327 -0.54978365
-1.1036328 21.33115 29.358696 -0.10563976 -0.84240919 -0.52838153
-10.812716 21.053761 31.856829 -0.11005837 -0.83948636 -0.53211826
12.068331 23.657635 23.834467 -0.059050903 -0.81608748 -0.57490367
2.5378137 21.998438 27.63216 -0.083231546 -0.83161288 -0.54908335
-5.5075154 21.470896 30.110357 -0.10621236 -0.84060848 -0.53112739
-7.528789 20.861094 31.441921 -0.10069226 -0.83731508 -0.53736818
-19.872601 19.201433 35.689201 -0.042182434 -0.80523497 -0.59145355
5.0460796 21.638468 27.847719 -0.094522633 -0.82319176 -0.55983996
1.0518229 21.21125 29.176706 -0.10422248 -0.83368593 -0.54231483
-4.3901019 20.286087 31.80162 -0.10964208 -0.83323884 -0.54193336
-17.446602 19.608147 35.076431 -0.027398601 -0.81972784 -0.57209754
-12.260435 19.883718 34.007786 -0.098802745 -0.84249085 -0.52957249
-15.22998 19.564953 34.945992 -0.067986503 -0.83408374 -0.5474323
10.091193 21.344318 27.48958 -0.084209062 -0.8273415 -0.55535126
-10.778603 19.496609 34.177887 -0.13400477 -0.82385206 -0.55073643
9.5475941 20.597189 28.534107 -0.097465709 -0.80610585 -0.58368975
6.1374693 19.968945 30.049244 -0.10387839 -0.82010508 -0.56270498
-2.0707431 19.297268 32.654121 -0.1232592 -0.80635315 -0.57844776
-6.0797534 19.441156 33.36813 -0.10345096 -0.82541585 -0.55496538
-8.9592953 19.179466 34.258053 -0.10969411 -0.82804251 -0.54982984
2.79228 19.621227 31.230127 -0.11732475 -0.82237148 -0.55672258
0.21985322 20.76104 30.137589 -0.1155666 -0.82788652 -0.54886091
-30.995924 -50.144341 70.639816 -0.24645458 -0.96367866 -0.10287628
-26.957054 -51.658207 72.88726 -0.32328668 -0.94499552 0.04969044
-25.011292 -52.216801 73.320061 -0.2591913 -0.96437794 0.052868381
-22.526644 -52.789623 74.090256 -0.33698878 -0.93967384 0.05875051
-23.10552 -52.539715 74.272812 -0.22016834 -0.97443193 -0.044814654
-20.736193 -53.332951 75.17585 -0.27754197 -0.92020923 0.27601686
-16.955757 -54.073757 76.979187 -0.2988289 -0.74401784 0.59761083
-15.271292 -54.506886 76.560005 -0.24325199 -0.91514021 0.32147589
-13.012609 -54.349651 76.69706 -0.25839168 -0.28873637 -0.92188126
57.316628 -47.412441 54.304699 0.46241277 -0.87356848 -0.15183045
-10.349795 -55.341 77.90889 -0.22505365 -0.87221915 0.43426338
-7.9759469 -55.403378 77.261856 -0.44304818 -0.77911836 -0.44348964
-6.9724975 -55.990234 77.29039 -0.17630151 -0.96219909 0.20758332
35.319859 23.393751 18.367762 -0.30832505 -0.89144897 -0.33204579
39.006252 21.401983 19.943321 -0.35935223 -0.8722102 -0.33183625
35.118927 22.592503 20.1553 -0.27998856 -0.88698393 -0.36724094
33.089237 23.03714 20.492926 -0.24128887 -0.89593935 -0.37292394
29.716259 23.807779 20.514174 -0.19517438 -0.90530741 -0.37726036
47.665688 16.286568 22.141115 -0.50554842 -0.81842417 -0.27313495
37.586155 21.589254 20.897268 -0.3095153 -0.88158053 -0.35639322
40.014706 20.029732 22.146793 -0.37495589 -0.86131907 -0.34283766
41.259712 18.740742 24.082109 -0.37221304 -0.85652494 -0.35752261
36.546253 21.044594 22.680109 -0.30496991 -0.8814429 -0.36062697
35.027943 22.160316 21.636269 -0.27881846 -0.8896479 -0.36164477
33.443619 21.923077 22.903822 -0.21603847 -0.88405895 -0.41444799
31.943235 23.208023 21.337952 -0.2268059 -0.89957941 -0.37325054
27.804964 23.952066 21.353312 -0.12941866 -0.89141667 -0.43431237
30.528238 23.299704 21.733011 -0.16388874 -0.90334505 -0.3963688
39.102753 19.915619 23.625904 -0.34277815 -0.87143159 -0.35087049
38.042225 20.182259 23.976418 -0.30540746 -0.87190747 -0.38275805
39.970982 18.785139 25.299936 -0.342439 -0.84141731 -0.41803405
30.715326 22.514832 23.047779 -0.19180202 -0.88221359 -0.43001309
34.865273 20.115677 25.841766 -0.2249696 -0.83803767 -0.49707296
28.904196 22.502163 23.951406 -0.13448209 -0.8745355 -0.46594232
37.583637 19.339411 25.887421 -0.27851841 -0.84113717 -0.4635902
35.552235 20.98451 24.033606 -0.25945348 -0.87404233 -0.41077241
32.893429 21.492746 24.409941 -0.20264645 -0.8766396 -0.43639126
31.32988 20.925621 26.005016 -0.1578861 -0.8520475 -0.4990862
27.099031 21.549728 25.919291 -0.08336395 -0.84930909 -0.521272
25.227797 22.887367 23.988663 -0.072827727 -0.86581498 -0.49503589
22.852715 21.575676 26.223003 -0.028042929 -0.84039068 -0.54125512
17.550474 11.78282 -40.103645 -0.18334457 -0.98173946 -0.050719056
8.4466114 13.917036 -38.681339 -0.11410557 -0.75164723 0.64962018
-2.3578856 13.769879 -39.481071 0.0027182617 -0.9624033 0.27161077
2.250886 14.687494 -38.335632 -0.023057751 -0.76600641 0.64241934
26.579634 9.8289671 -37.206657 -0.31168565 -0.88298517 0.35098317
11.071682 13.5457 -38.621841 -0.15252069 -0.74973017 0.6439271
21.843874 12.274467 -36.617558 -0.27342746 -0.70937592 0.64963323
-0.031891279 14.971034 -38.054253 0.01233036 -0.76254356 0.64681941
12.390825 15.126649 -36.711319 -0.1645039 -0.7238971 0.67000854
6.5637188 14.766467 -38.001167 -0.064740874 -0.75564915 0.6517691
19.777733 13.670089 -36.000015 -0.24405614 -0.71370637 0.65655148
42.013317 4.7473111 -32.395977 -0.31403074 -0.93972826 -0.13526125
31.429178 9.3033876 -34.688618 -0.42485803 -0.69269806 0.58280784
24.173981 11.696872 -36.212208 -0.30010781 -0.71074355 0.63622236
16.130547 14.960545 -35.794933 -0.19972458 -0.73283738 0.65043014
25.96353 11.508576 -35.515972 -0.35197714 -0.70462704 0.61612719
21.494101 14.428853 -34.468616 -0.27014634 -0.71258122 0.64749444
9.6715841 15.662992 -36.668381 -0.11395588 -0.73318565 0.67041242
4.3437552 16.203503 -36.627922 -0.020691745 -0.7472626 0.66420656
6.73037 16.547003 -36.064674 -0.070262872 -0.74842912 0.65948242
33.861122 8.7522392 -33.444523 -0.462345 -0.66768211 0.58347028
27.140327 11.68728 -34.667141 -0.35475823 -0.68495363 0.63638443
24.215097 13.096705 -34.725269 -0.30829698 -0.69917935 0.64505905
41.047367 5.1383681 -31.290245 -0.53000462 -0.7577731 0.38062468
33.859867 10.170262 -31.996172 -0.46124539 -0.64853716 0.60551804
31.150337 10.971679 -33.014263 -0.41759768 -0.67424548 0.60910201
17.734707 15.5727 -34.634518 -0.21384084 -0.72337252 0.65650916
9.244339 16.672642 -35.583557 -0.10677297 -0.74336481 0.66030931
9.6098766 18.088499 -33.903255 -0.10867026 -0.75056916 0.65179503
0.57355613 17.047863 -35.588303 0.021473715 -0.75585037 0.65439212
-3.3150275 16.075283 -36.536777 0.062466934 -0.76124996 0.64544272
28.59589 12.695212 -32.785831 -0.3723968 -0.68692112 0.62406737
14.755004 17.097557 -33.834587 -0.18595538 -0.72774929 0.66015261
12.550029 16.801062 -34.736607 -0.15762888 -0.73979044 0.65411246
6.1774683 17.618151 -34.827557 -0.061314665 -0.75603837 0.65164906
3.9138827 17.294657 -35.400379 -0.019164817 -0.75083071 0.66021651
22.952759 14.976697 -33.197903 -0.29093784 -0.71216935 0.6388818
25.744267 13.772995 -33.194431 -0.33251241 -0.69938558 0.632689
12.821286 18.057543 -33.281219 -0.15084566 -0.74206561 0.65313417
1.848595 18.149414 -34.447536 0.0068139918 -0.75258678 0.65845782
-10.651488 18.287748 -32.432396 0.17685387 -0.76267534 0.62213272
28.995583 14.109179 -30.935305 -0.38641214 -0.6879006 0.6143927
26.132805 14.580803 -32.043148 -0.34830448 -0.70106632 0.62224597
32.609962 12.079791 -30.743479 -0.43224642 -0.67199725 0.60131752
18.723652 16.248037 -33.503574 -0.24318768 -0.7212249 0.64860964
17.176329 17.367844 -32.815567 -0.21285072 -0.72735244 0.65242082
7.7897568 18.333097 -33.848728 -0.078570381 -0.75570941 0.65017688
5.8880682 19.002752 -33.290367 -0.053294204 -0.75782847 0.65027362
23.946131 16.050859 -31.557951 -0.31164846 -0.70615703 0.63578105
20.448305 16.452652 -32.635479 -0.26338053 -0.71605271 0.64645123
10.253368 19.737795 -31.871315 -0.11066091 -0.75669891 0.64432991
51.868908 -0.33374515 -24.507427 -0.57431936 -0.81163555 0.10679393
35.831207 10.210146 -30.364904 -0.48453936 -0.64757103 0.58810997
13.556105 19.629185 -31.293972 -0.16689973 -0.75521076 0.63387787
3.1945405 19.423565 -32.94355 -0.013541687 -0.75997043 0.64981657
-39.960438 8.4044132 -25.796827 0.38327283 -0.91297436 0.13992773
41.640045 8.6767263 -26.606096 -0.556086 -0.62272584 0.55043697
0.28628838 19.501289 -32.811363 0.034883872 -0.76347941 0.6448893
-4.4773631 19.247421 -32.566437 0.095437616 -0.76322895 0.63904089
31.201756 14.169137 -29.438282 -0.41156372 -0.68331015 0.60307759
-5.9232426 20.311613 -31.050703 0.1195611 -0.76279134 0.63549542
15.591329 18.591309 -31.944805 -0.20179239 -0.7432037 0.63790917
6.6041603 19.961367 -32.090542 -0.067543164 -0.75599718 0.65108079
51.820171 0.96082568 -22.563816 -0.70061994 -0.56222516 0.43935695
-43.132359 7.8263855 -24.55287 0.064046711 -0.92998719 -0.36196941
26.017591 16.217518 -30.305071 -0.34101319 -0.70346326 0.62357807
22.025131 17.385481 -30.942688 -0.27766886 -0.71825886 0.6379689
19.420084 18.052935 -31.275726 -0.23781964 -0.73149598 0.639027
20.614857 18.95471 -29.736 -0.25249967 -0.74618131 0.61600107
16.800713 20.451279 -29.341124 -0.20486429 -0.75265789 0.62572885
-0.33892649 21.726364 -30.082273 0.051420614 -0.77642155 0.62811267
-44.955891 6.9297643 -22.80821 0.10044684 -0.92000681 -0.37881121
27.158922 17.186621 -28.588348 -0.36324742 -0.70662189 0.60723704
-41.057579 8.0155497 -24.908091 0.41012684 -0.91084546 0.046439007
31.764332 15.719476 -27.200773 -0.44467232 -0.68621647 0.57565045
24.162369 17.714104 -29.600906 -0.3028174 -0.7244584 0.61924285
12.30706 21.375391 -29.52424 -0.14607567 -0.76440078 0.62797558
8.5833063 21.413532 -30.159101 -0.081697911 -0.7660169 0.63760775
24.125193 19.095095 -27.932457 -0.30961487 -0.74436599 0.5916568
10.289454 22.062328 -29.044624 -0.11597993 -0.76945442 0.62808329
7.579237 22.552959 -28.878731 -0.073205151 -0.7796461 0.62192678
0.62667608 23.132046 -28.394382 0.024508573 -0.79261738 0.60922658
29.81196 16.25914 -27.96648 -0.40251547 -0.70133805 0.58830798
18.233511 21.080418 -28.074326 -0.22826141 -0.76348501 0.60414177
30.622118 17.340603 -26.029404 -0.40669769 -0.71862543 0.56406969
-6.1818566 22.773579 -27.984615 0.12372845 -0.78737921 0.60392487
-47.979301 5.4200368 -19.765482 0.31081894 -0.92863286 -0.2025654
3.3738284 23.292107 -28.176956 0.001513875 -0.78994429 0.61317676
41.258495 10.867844 -24.542669 -0.55411416 -0.6392768 0.53318173
14.996119 22.339849 -27.563963 -0.1884269 -0.77001792 0.60956353
-48.628796 4.5371017 -18.094151 0.6183989 -0.7682336 -0.16552909
35.216331 15.230839 -25.041143 -0.4738594 -0.68102145 0.55827141
28.177074 18.037464 -26.906092 -0.3658469 -0.73406917 0.57210004
23.186308 21.144615 -25.749182 -0.29549325 -0.76541299 0.57168758
20.263338 21.189049 -27.070145 -0.26243705 -0.76138729 0.59280366
12.895552 22.501032 -27.951187 -0.14625892 -0.77054495 0.62037802
9.6335554 23.171288 -27.84584 -0.1076081 -0.78212279 0.61376244
32.353832 16.877878 -25.376165 -0.43501255 -0.70521265 0.5598563
25.503975 20.47242 -25.345234 -0.33572587 -0.75076944 0.56888789
17.530785 22.741913 -26.161909 -0.21994059 -0.78187269 0.58335346
28.498226 19.135159 -25.216665 -0.37867641 -0.73975623 0.55620575
7.7376895 24.625856 -26.196646 -0.078905374 -0.80814928 0.58366829
5.6494365 23.841406 -27.428833 -0.036190148 -0.80209351 0.59610081
-50.916679 3.4637871 -15.790265 0.32838279 -0.92651635 -0.1836632
11.883126 23.663103 -26.76519 -0.14400597 -0.79477543 0.58957136
35.67926 16.232439 -23.351326 -0.49353352 -0.69595456 0.52160507
30.225927 19.116856 -24.011528 -0.39868826 -0.7365104 0.54644305
14.326074 24.047182 -25.535557 -0.18272947 -0.79633033 0.57660031
-52.626583 2.4599576 -13.845349 0.25523493 -0.92311752 -0.28759226
32.628014 18.301912 -23.297758 -0.44479111 -0.72057152 0.5319187
28.145073 21.251219 -22.606987 -0.38203347 -0.75680572 0.5303731
26.24758 21.549124 -23.490171 -0.34886011 -0.76022685 0.54804361
20.881424 21.991552 -25.787979 -0.27248004 -0.78075969 0.56228906
9.7926817 24.500378 -25.970812 -0.11020913 -0.81286186 0.571935
23.823227 22.330961 -23.770044 -0.30093941 -0.77385426 0.55730164
21.672995 23.636505 -23.016861 -0.28092316 -0.77657491 0.56392694
18.587246 23.719408 -24.41984 -0.23765193 -0.78800279 0.56795526
15.901002 24.644251 -24.121254 -0.20889726 -0.79670185 0.56712264
11.946761 25.419355 -24.230799 -0.13454317 -0.81647497 0.56148618
6.5303988 26.156654 -24.111504 -0.052040573 -0.83156604 0.55298257
-53.801903 1.5211773 -12.107254 0.42975765 -0.89274961 -0.13530131
32.004875 19.542795 -22.017851 -0.42724514 -0.74436337 0.51321018
1.9770688 25.718367 -24.926081 0.011980828 -0.82743841 0.56142867
23.448013 24.076324 -21.504541 -0.31818539 -0.79659486 0.51399875
9.5947857 26.574759 -23.031092 -0.11353602 -0.82880509 0.54789758
-53.373596 1.6335481 -10.517375 0.67230546 -0.73111117 0.11611102
34.496552 18.940445 -20.757807 -0.46668395 -0.72994572 0.499385
33.144516 20.519413 -19.609509 -0.45210835 -0.75836092 0.46956021
30.555267 21.575027 -20.27112 -0.41762376 -0.76080847 0.49675035
29.308956 21.198759 -21.784975 -0.39796519 -0.75869739 0.51575375
9.5111732 27.383619 -21.799337 -0.099359766 -0.85822326 0.50356781
19.689077 24.849968 -22.258051 -0.25639758 -0.78198677 0.56811708
4.0408626 26.969286 -22.982521 -0.015647536 -0.84772944 0.53019798
-2.4312341 26.459936 -23.423019 0.070007131 -0.83249784 0.54958749
14.582163 26.111889 -22.520147 -0.16687122 -0.82932663 0.53326476
26.29451 22.96549 -21.351635 -0.36003411 -0.78702003 0.50097394
24.750978 24.615543 -19.732969 -0.31878227 -0.82090414 0.47380823
4.8380852 27.925024 -21.327044 -0.017542973 -0.87096077 0.49103931
31.703896 22.273809 -18.097309 -0.43816081 -0.7735101 0.4579272
6.7630997 27.574907 -21.80835 -0.053846031 -0.86018229 0.50713617
67.592705 -14.20001 -3.8093836 -0.66294938 -0.72074616 -0.20254126
-0.51807827 28.684053 -19.86224 0.049098935 -0.87882864 0.47460464
35.797699 19.439348 -18.63574 -0.49170482 -0.73264146 0.47059843
29.25115 22.864012 -19.268024 -0.38534841 -0.78398913 0.4866904
12.938556 27.102257 -21.307692 -0.15250336 -0.85202909 0.50078857
6.2143326 28.574951 -20.141111 -0.047971752 -0.87870479 0.47494909
68.598145 -15.489139 -2.0203846 -0.41741914 -0.83755088 -0.35251924
69.2062 -16.678141 -0.11053421 -0.47975188 -0.8021099 -0.35560918
35.833267 20.965607 -16.156404 -0.4780893 -0.76047528 0.43944061
34.448189 22.284992 -15.226282 -0.46161923 -0.7760129 0.42978096
12.178772 28.496407 -19.132132 -0.14569506 -0.87501216 0.46165651
2.0314624 29.296175 -18.963774 0.0064615831 -0.88866073 0.45851961
31.583025 23.473015 -16.110899 -0.43777364 -0.79348248 0.42277631
4.8741565 30.030519 -17.470303 -0.021591345 -0.89129794 0.45290369
29.587976 24.035221 -17.057459 -0.38661969 -0.81523758 0.43117613
24.344007 26.461403 -16.692196 -0.31313607 -0.85102338 0.42155075
26.689682 24.726244 -18.176924 -0.35634434 -0.81899267 0.44974402
8.9442825 29.002041 -18.938721 -0.088628702 -0.88429487 0.45844039
21.569038 27.571079 -16.367279 -0.29512489 -0.86189711 0.41235253
4.0542383 30.593781 -16.154797 -0.030522915 -0.92813522 0.37098956
36.604382 22.012737 -13.197382 -0.49215728 -0.78206879 0.38229525
15.271227 28.621935 -17.708506 -0.17711557 -0.88212454 0.43644768
10.751344 29.898407 -16.600639 -0.11051484 -0.91143912 0.39631444
6.8557243 29.846735 -17.575598 -0.071003981 -0.90898371 0.41073951
38.17374 20.777206 -13.763581 -0.50776845 -0.7613402 0.40315306
19.289995 28.652222 -15.640305 -0.25527588 -0.89248544 0.37189224
34.697556 23.158089 -13.408732 -0.46993366 -0.79577786 0.38196841
29.895151 25.242281 -14.270561 -0.3976939 -0.83682984 0.37623852
15.569752 29.950306 -14.607842 -0.19740126 -0.91013128 0.36427164
13.449784 29.680483 -16.221601 -0.15033305 -0.91309142 0.37903032
-17.215343 27.864147 -15.282045 0.28691405 -0.86439204 0.41292453
32.756687 24.12676 -13.605742 -0.43102261 -0.81106776 0.39545977
-16.281105 28.941549 -13.691887 0.26442674 -0.88536978 0.38235953
33.035942 24.970089 -11.330091 -0.4248386 -0.8398751 0.33781937
22.461056 28.68372 -13.063495 -0.28161609 -0.89543754 0.34479541
18.546825 29.772453 -13.173428 -0.22755432 -0.92023802 0.31840366
8.2377748 30.950617 -14.709661 -0.071380541 -0.93016171 0.36014444
26.906282 26.730007 -13.93492 -0.36078095 -0.84719551 0.38999608
49.538486 13.772464 -8.0903273 -0.6890288 -0.6568743 0.30619529
29.238813 26.859261 -11.12778 -0.39164439 -0.86508566 0.31343493
14.68394 30.881977 -12.4008 -0.17285784 -0.94015104 0.29366007
35.514931 23.713169 -11.039666 -0.48197916 -0.81479967 0.32217637
26.423887 28.418537 -9.7140808 -0.342471 -0.90760821 0.24281874
24.563744 27.916773 -13.305129 -0.31588426 -0.88589895 0.33970603
11.03175 31.298592 -12.950143 -0.12622401 -0.94151038 0.31245112
27.374014 27.517159 -11.532412 -0.35348463 -0.88767755 0.29508832
23.835609 29.347584 -9.8372698 -0.2988137 -0.91864032 0.25847697
47.797089 16.194147 -6.500267 -0.66521782 -0.68605572 0.2946403
38.504139 23.064489 -7.8858066 -0.51315117 -0.8143937 0.27099609
11.972064 32.144672 -9.3497515 -0.12628627 -0.96619302 0.22477302
0.93673187 32.836842 -9.3260269 0.0033970897 -0.97611773 0.21721546
33.029057 25.825809 -8.9644728 -0.42303675 -0.86342561 0.27483833
20.794607 30.041729 -10.54818 -0.25280079 -0.93161201 0.26113358
33.03603 26.351927 -7.047051 -0.4174127 -0.88411999 0.20999667
29.513214 27.617071 -8.0211134 -0.37744716 -0.89347142 0.24339785
8.6641607 32.256321 -10.401714 -0.092717484 -0.96844482 0.2313396
3.3857353 32.477436 -10.571247 -0.023289755 -0.97109461 0.23755604
29.43853 28.120609 -6.1584802 -0.36733806 -0.91129977 0.18599817
17.454788 31.025909 -9.8171225 -0.20984112 -0.94590336 0.24745396
14.607406 31.70472 -9.4549637 -0.17437132 -0.96226287 0.20891333
37.808147 24.178162 -5.6213317 -0.49691191 -0.83728993 0.22808829
7.7698259 32.785675 -8.4491625 -0.068602808 -0.98367417 0.16636953
19.822607 31.09901 -7.1479411 -0.23877916 -0.95602256 0.17030957
71.790337 -25.617458 14.783514 -0.4307 -0.76788914 -0.47417688
24.832378 29.710817 -6.7341752 -0.30397451 -0.93635499 0.17560966
3.5570495 33.226894 -6.9641414 -0.030505814 -0.98334205 0.17918636
35.254921 25.69491 -4.9897733 -0.4463039 -0.87622172 0.18179236
22.286545 30.307652 -7.4132981 -0.27290848 -0.94488966 0.1808437
17.417755 31.513321 -7.4440742 -0.19513033 -0.96815568 0.1568398
14.480746 32.162151 -6.9980211 -0.16905087 -0.9750545 0.14384203
27.181002 28.996893 -5.9127431 -0.34260449 -0.92577195 0.15990119
11.90589 32.617508 -6.7195883 -0.12580179 -0.98098111 0.14781703
21.954124 30.810173 -4.6271548 -0.27100587 -0.95680964 0.10521948
8.9638767 32.784603 -7.4578338 -0.092552818 -0.98316139 0.15756811
-1.6156249 33.494019 -4.840219 0.035562702 -0.99224007 0.11914276
25.782492 29.841105 -3.9063425 -0.29513738 -0.95076412 0.094560049
8.3102751 33.203194 -5.047791 -0.082478501 -0.99029648 0.11184867
15.57626 32.227215 -5.0937624 -0.17960006 -0.97802889 0.10584613
11.852581 32.892639 -4.3625832 -0.13306093 -0.9867807 0.092512801
34.92004 26.222883 -2.6899059 -0.42715597 -0.89799678 0.10554437
-66.090256 -14.679548 16.872639 -0.42196864 -0.75775337 -0.49774718
32.399281 27.317202 -3.6892457 -0.40474567 -0.90558422 0.12687895
30.241333 28.369524 -2.5827241 -0.3603487 -0.92774558 0.097143896
28.522167 29.039476 -1.7600936 -0.34602818 -0.93397409 0.089201726
16.522478 32.30146 -2.1907129 -0.18567415 -0.98126268 0.051463138
19.050417 31.572002 -4.4395599 -0.2158837 -0.97167063 0.096179307
20.54796 31.44651 -1.0563546 -0.22825857 -0.97356367 0.0084728757
18.350605 32.002106 -0.94831985 -0.20811342 -0.97800112 0.014236001
9.0041771 33.292912 -3.3615551 -0.088498943 -0.99479812 0.050443873
0.438059 33.545345 -4.219233 0.022226397 -0.99684656 0.076177269
26.746378 29.770605 -0.67883581 -0.29841 -0.95432812 0.014466485
35.393467 26.427265 0.95710212 -0.43715212 -0.89779896 0.053432312
31.609005 27.864685 -0.40668079 -0.36298352 -0.93073183 0.044512499
21.812147 31.171331 -2.0004013 -0.26693609 -0.96249622 0.048436821
39.33601 24.401405 2.0558639 -0.48604089 -0.87217551 0.055444557
1.8212712 33.737095 -1.4797187 -0.040311053 -0.99907428 -0.015018409
29.590324 28.674019 -0.19530089 -0.36852419 -0.9290939 0.031215984
2.8796818 33.632687 0.43532813 -0.039466433 -0.99814504 -0.046356719
33.262966 27.400076 1.4991405 -0.38239321 -0.92350906 0.030108288
22.109091 30.99823 1.1848488 -0.24322093 -0.96875381 -0.048574794
28.663315 29.127853 1.6342541 -0.31716412 -0.94762504 -0.037600804
19.021027 31.743069 1.1722869 -0.20610191 -0.97606266 -0.069452837
12.763137 32.787933 0.74636161 -0.12119685 -0.99060369 -0.063369542
30.973602 28.221977 2.8650105 -0.3578468 -0.93353981 -0.021189982
15.619282 32.421909 0.18980049 -0.16096729 -0.98527634 -0.057620093
16.022018 32.182991 2.2708385 -0.16539645 -0.97910911 -0.11827686
19.096645 31.512468 3.3011997 -0.20421757 -0.97155809 -0.11987516
9.4067154 33.173302 0.48782983 -0.090117186 -0.99318147 -0.073956296
23.867966 30.542622 2.0788867 -0.26837048 -0.961667 -0.056338016
25.458832 29.859394 4.3794432 -0.26068717 -0.95513278 -0.14058253
3.3481526 33.36768 2.8923116 -0.044612598 -0.98896945 -0.14124165
29.878828 28.490839 4.6339083 -0.319426 -0.94357151 -0.087406009
13.46207 32.501743 3.295027 -0.1385681 -0.98156852 -0.13161339
10.110785 32.989052 2.677021 -0.084662102 -0.99045599 -0.10876299
28.243828 28.907362 4.8375068 -0.27817261 -0.95263767 -0.12288786
10.4813 32.601765 4.3616223 -0.10008703 -0.97287261 -0.20856997
27.711674 28.795822 7.1450377 -0.25080451 -0.95149589 -0.17819288
24.661188 29.73855 6.0143247 -0.25310916 -0.95178449 -0.17332658
6.6158767 32.971142 4.3328705 -0.062030524 -0.98103535 -0.18363525
37.415985 25.370514 6.1663051 -0.43505758 -0.89824516 -0.06229353
13.937304 32.060719 5.0187159 -0.1267219 -0.97128701 -0.20135292
32.286102 27.445179 7.024024 -0.3334536 -0.93518174 -0.11934729
16.406883 30.836119 8.6710186 -0.15481892 -0.95162427 -0.26540974
1.9984578 32.804516 6.0237265 -0.038791697 -0.97359371 -0.22496794
-3.1177685 33.083378 5.253634 0.012518364 -0.98283631 -0.18405479
9.4885292 32.04023 7.5104866 -0.09430179 -0.96491069 -0.24506019
31.57925 27.227295 8.8600845 -0.28992239 -0.93489009 -0.20475689
22.571974 29.888523 7.9744463 -0.20011002 -0.95182335 -0.2323537
14.361906 31.445698 7.5129619 -0.12504302 -0.95772129 -0.25910258
4.14818 32.490189 7.2127595 -0.047553785 -0.96775895 -0.24734825
34.31282 26.307276 9.1876211 -0.34375969 -0.92251486 -0.17548677
8.7446156 31.391138 9.4762526 -0.0810076 -0.94614488 -0.31344485
6.4436688 31.909988 8.6254187 -0.066721924 -0.95446938 -0.29075137
3.0990677 32.05669 8.6193542 -0.04543433 -0.9640736 -0.26172093
-0.75291944 32.574535 7.310679 -0.028776964 -0.97157276 -0.23498556
-2.9401584 32.254879 8.8767824 -0.0063958731 -0.9629035 -0.26977015
19.480574 30.324005 8.5565062 -0.17457685 -0.9496181 -0.26028508
-0.47921553 32.277691 8.6931629 -0.032341696 -0.96316499 -0.26695937
35.527958 25.246449 11.809535 -0.34429935 -0.91237533 -0.22142509
33.23185 26.099899 11.776546 -0.30480385 -0.92555296 -0.22460265
10.777315 31.499475 8.8250818 -0.09585806 -0.94638854 -0.3084802
1.4520667 31.817398 9.9925537 -0.035888348 -0.94945627 -0.31184122
-13.916303 31.101271 10.986658 0.082164019 -0.96406722 -0.25263301
36.713146 24.434376 13.176198 -0.36169064 -0.90309471 -0.23151675
31.446245 26.794323 11.189173 -0.273913 -0.93412775 -0.22886027
-4.6868496 31.723331 10.695743 0.0043878178 -0.95092773 -0.30938199
18.922747 29.689539 10.989926 -0.16768552 -0.93995404 -0.29726738
15.484334 30.120508 11.267812 -0.11785807 -0.93740016 -0.32770476
5.5011988 31.399151 10.518767 -0.075251482 -0.94452858 -0.31969208
40.453266 22.901897 12.9423 -0.44534031 -0.87503475 -0.18970041
30.264803 26.16773 14.285149 -0.24177803 -0.92717266 -0.28617173
26.550014 27.909702 11.51438 -0.22473861 -0.93649793 -0.26919177
22.27553 28.383507 13.323408 -0.17928433 -0.92897058 -0.32383746
17.572584 29.210913 13.040498 -0.13895315 -0.92754096 -0.34692907
11.705611 30.681454 10.949911 -0.11143533 -0.93544513 -0.3354468
24.288054 28.27562 12.228595 -0.20425864 -0.93611354 -0.28630385
19.905876 28.828505 13.171114 -0.16357692 -0.92975163 -0.32985508
2.2023296 30.735132 12.879462 -0.05356684 -0.92955065 -0.36478239
38.258102 23.2749 15.344778 -0.36570382 -0.89557016 -0.2534062
31.685572 26.177931 13.083899 -0.26260433 -0.92425531 -0.27711198
27.350368 27.122217 13.688747 -0.21397136 -0.9306587 -0.2968007
5.6075926 30.6991 12.231864 -0.078138754 -0.93469769 -0.34674859
7.1671953 29.92737 13.97888 -0.080596007 -0.91013288 -0.40640175
35.270641 24.084063 16.175056 -0.30252782 -0.90360409 -0.30327642
10.022745 29.760672 13.901163 -0.090362974 -0.91985106 -0.38171792
-8.6202145 31.001766 12.735657 0.025272973 -0.94828796 -0.31640363
32.713642 25.39337 14.739728 -0.27689096 -0.9134385 -0.29826415
31.080927 25.485807 15.910251 -0.25697416 -0.90813571 -0.33053544
24.438421 27.486162 14.287808 -0.1868092 -0.92163718 -0.34012833
21.601587 27.96278 14.374954 -0.16116163 -0.91589743 -0.36763951
16.166252 29.416922 13.102138 -0.096242443 -0.92828602 -0.35919684
0.77946907 30.838572 12.773757 -0.027370259 -0.93802637 -0.34548119
-2.9012244 30.742109 13.327263 -0.012972002 -0.9357416 -0.35244763
36.948235 22.934109 17.881252 -0.31746814 -0.89356548 -0.3174189
19.410673 27.864548 15.658471 -0.13517724 -0.90884668 -0.39461976
-9.8858404 30.112759 14.841909 0.043553941 -0.93974894 -0.33907956
25.899054 26.974234 14.936288 -0.18221603 -0.92894077 -0.32228294
22.496811 27.29162 15.995528 -0.15447427 -0.91808689 -0.36504
5.1855831 30.343525 13.470722 -0.065344952 -0.92323798 -0.37863138
-5.0098438 30.045876 15.035552 -0.025394272 -0.92138672 -0.38781664
31.723518 24.512001 17.769484 -0.22807048 -0.9146359 -0.33380383
33.905399 24.077753 17.294659 -0.27756608 -0.91132742 -0.30403823
28.787378 25.913158 16.399803 -0.2089972 -0.91093212 -0.35570046
25.981451 26.41407 16.484299 -0.17809373 -0.90562499 -0.38487145
2.6006348 29.634562 15.374744 -0.051532149 -0.90494978 -0.4223865
-0.6737957 30.046221 14.880443 -0.037583373 -0.91243798 -0.40748551
20.355074 26.892258 17.41577 -0.11111474 -0.89484245 -0.43233156
28.129097 25.384174 17.60317 -0.19163524 -0.90720648 -0.37450272
22.331034 26.381119 18.02404 -0.13152267 -0.89288461 -0.43064922
13.039935 27.961452 16.980785 -0.086723432 -0.87829697 -0.47018445
-11.417016 29.530968 16.562019 0.034669802 -0.93141019 -0.36231625
32.979824 24.034462 18.61203 -0.25369865 -0.8986209 -0.35793498
30.270138 24.544334 19.055153 -0.19416693 -0.90197998 -0.38565686
17.340137 27.428659 17.110922 -0.10083134 -0.88463312 -0.45525521
27.118706 24.730606 19.821529 -0.15880972 -0.89997983 -0.40597504
25.451965 25.601654 18.635811 -0.16400325 -0.89379728 -0.41740778
-5.9636726 28.686413 18.371115 -0.026124384 -0.9056586 -0.42320207
20.011303 26.11058 19.076981 -0.10325352 -0.88180172 -0.46017864
19.468378 25.402897 20.494135 -0.078099556 -0.85566503 -0.51160318
16.853666 25.33696 20.921894 -0.067354888 -0.84487486 -0.53070676
23.022905 24.90406 20.65288 -0.10806177 -0.87710303 -0.46798825
3.0324681 26.038553 21.595516 -0.080554672 -0.83030671 -0.55145425
-0.40617982 26.748854 21.018185 -0.080641225 -0.84413767 -0.53002697
21.231827 24.052427 22.431189 -0.051013403 -0.8430444 -0.53541917
23.640348 23.37977 23.306532 -0.061674688 -0.86221009 -0.50278234
18.376858 24.023106 22.741581 -0.051547509 -0.82730532 -0.55938244
17.625553 22.493467 24.984514 -0.034833953 -0.81779861 -0.5744493
15.173934 21.536169 26.421061 -0.046543937 -0.8031134 -0.59400541
20.52589 22.006012 25.61825 -0.020484453 -0.83417296 -0.55112243
17.917376 21.366035 26.528717 -0.01226664 -0.81139505 -0.58436942
56.638329 -47.428516 53.929562 0.15660892 -0.94231534 -0.29583004
56.317604 -48.024387 55.794281 0.20959197 -0.95451802 -0.21205322
54.488834 -48.211597 56.353886 0.06052291 -0.8958801 -0.44015425
53.409168 -49.072712 56.930683 0.28212792 -0.90522212 -0.31776822
53.546528 -49.356937 58.876568 0.43042114 -0.90228885 0.024748715
52.059711 -50.043488 59.79174 0.40304399 -0.91500348 0.018004691
50.244125 -50.778542 61.136044 0.18099038 -0.96278316 -0.20072608
48.831924 -51.118755 62.478756 0.37592053 -0.9264338 -0.02010317
48.064411 -51.724255 61.79438 0.48339924 -0.87070167 -0.090574652
47.727123 -51.720505 62.863682 0.49789131 -0.85553902 0.14197606
45.496269 -52.350353 64.969551 0.46287411 -0.84486717 0.26822951
37.722385 -54.107975 68.801292 -0.35491902 -0.76577824 0.53629863
3.7260067 -56.493679 79.1157 0.0036853726 -0.60871434 0.79338086
-16.412086 29.87594 -11.268278 0.2504493 -0.91693425 0.31065533
-65.083931 -19.283762 24.250549 0.007281384 -0.85669041 -0.5157795
8.6597204 33.330276 -1.3253747 -0.07504148 -0.99701548 -0.018136166
6.5006757 32.410263 6.6713424 -0.073552147 -0.96905267 -0.23564194
-8.98314 31.424952 11.219625 0.040972516 -0.95905858 -0.28022826
-15.027027 30.363577 13.322177 0.08633256 -0.94235271 -0.32329249
3.774529 31.528778 10.497691 -0.063987143 -0.94392693 -0.32389441
-3.1322601 28.933607 17.506599 -0.042625569 -0.90285856 -0.42781943
3.008131 27.460638 19.333 -0.078587048 -0.85135043 -0.51867765
55.185528 5.1385064 33.389454 -0.687837 -0.62170243 -0.37465504
54.792454 4.0341749 35.735004 -0.67312586 -0.61839068 -0.40557924
57.096725 -1.6999223 39.696365 -0.74745584 -0.51644725 -0.41784209
53.845352 6.1210485 33.923367 -0.64660889 -0.65626031 -0.38886937
53.243893 7.644927 32.243984 -0.64637089 -0.67369574 -0.35824403
52.37286 7.344677 34.215122 -0.61355406 -0.68468529 -0.39339232
56.326225 1.9623955 36.146687 -0.71340984 -0.57970589 -0.39368454
56.768055 -3.1456246 41.876945 -0.74181849 -0.47693273 -0.47142386
56.359844 0.17764245 38.489994 -0.71107006 -0.56112874 -0.4236908
49.940567 9.0848389 34.337334 -0.50562054 -0.74681056 -0.43199748
51.520607 9.0540762 32.484486 -0.55891162 -0.72376913 -0.40469259
48.496334 11.076649 32.437428 -0.4868573 -0.76952332 -0.41328412
55.552853 -1.3705231 41.825241 -0.70934957 -0.53384221 -0.46025607
55.156948 -0.30070865 41.031273 -0.69581205 -0.57021636 -0.4366909
53.973202 3.5805011 37.777016 -0.67029202 -0.60674906 -0.42727533
52.692677 5.3247266 37.113724 -0.6303879 -0.65729249 -0.41301039
51.470192 7.1604214 35.804436 -0.55603021 -0.71664757 -0.4210068
54.337048 1.4294156 40.106407 -0.67792165 -0.58647031 -0.44325495
53.085846 3.8630025 38.473343 -0.59252387 -0.63295084 -0.49828568
-64.613281 -24.235785 32.601395 -0.32969043 -0.76250929 -0.55667198
41.043118 7.0088124 -29.141685 -0.56534356 -0.61913216 0.54503387
55.161869 -2.0951355 -23.030041 0.3335754 -0.61589235 -0.71372551
44.613689 4.7117701 -27.847105 -0.57779789 -0.64077282 0.50552928
45.550014 4.90734 -26.582714 -0.61962485 -0.60079545 0.5050841
53.629986 -1.1572777 -22.308937 -0.68610507 -0.66773289 0.28877786
49.307537 2.2729466 -24.680111 -0.67394745 -0.59993333 0.43113193
43.112022 5.5137506 -28.530558 -0.57382029 -0.61837775 0.53697228
56.509964 -2.8874645 -19.098948 -0.75974774 -0.57158923 0.30995029
47.851276 4.45995 -24.351412 -0.65721184 -0.56614834 0.49754265
62.582104 -7.6156325 -14.840913 -0.46065977 -0.83676678 -0.29599646
61.678364 -6.892024 -15.722017 -0.54272306 -0.80001795 -0.255779
44.081875 6.386951 -26.716503 -0.59397703 -0.59232891 0.54436922
43.238003 7.6763806 -26.126383 -0.58001691 -0.61210328 0.53750348
37.881855 9.4858961 -29.378544 -0.50347501 -0.64391416 0.57609683
55.687275 -1.0839728 -18.474808 -0.77049124 -0.49697754 0.39919481
54.776115 -0.80955613 -19.590235 -0.75447279 -0.49963477 0.42560059
49.179729 5.1979485 -21.516644 -0.67711753 -0.57370883 0.4608362
39.447811 8.6318722 -28.86013 -0.54444098 -0.62946558 0.55439794
61.446903 -7.2613182 -14.075827 -0.70739931 -0.70677024 -0.0078732623
50.587086 3.0008566 -22.166353 -0.6985324 -0.54171717 0.46754149
62.675003 -8.4379044 -12.902965 -0.73978519 -0.66919106 0.070008412
53.085777 1.1240315 -20.427736 -0.7360543 -0.52242541 0.43045998
57.716522 -2.9284623 -16.481562 -0.7882939 -0.49262214 0.36866799
60.972347 -5.9137559 -12.735003 -0.82889867 -0.48524681 0.2783207
52.50156 2.4759312 -19.712786 -0.72375321 -0.54376227 0.42485753
40.022182 10.216128 -26.535032 -0.53750914 -0.63409656 0.55588251
55.673115 0.28042731 -16.714602 -0.77083266 -0.50288945 0.39104894
45.649876 6.5488348 -24.650702 -0.62011909 -0.59385395 0.51263028
45.077347 8.4464951 -23.120956 -0.61088157 -0.60280722 0.51327115
33.794231 13.149607 -28.681938 -0.45594791 -0.67181242 0.58376336
63.162922 -8.6700077 -10.543544 -0.83929986 -0.48712656 0.24141948
50.493706 4.5992494 -20.39712 -0.69988185 -0.55824465 0.44556513
47.500408 7.118618 -21.659935 -0.65446615 -0.58738756 0.47607756
61.397091 -5.2274675 -10.959287 -0.85006225 -0.43061087 0.30326286
54.147522 1.3201622 -18.25215 -0.74863917 -0.5205515 0.41056731
52.037971 4.1459537 -18.345028 -0.72505748 -0.54508585 0.42091936
58.57972 -2.9466236 -14.72824 -0.81071776 -0.4662089 0.35409865
66.743675 -13.148649 -5.2583566 -0.7888447 -0.61457413 -0.004774597
53.722321 2.9015732 -17.023525 -0.75003219 -0.52827632 0.39796475
64.985588 -10.51491 -7.7950139 -0.86167032 -0.4932704 0.11919988
59.79533 -3.409668 -12.559339 -0.8230533 -0.46139756 0.33120328
58.481049 -1.2499874 -12.508397 -0.81109321 -0.48882216 0.32121754
57.328903 -0.98747444 -15.135709 -0.7914896 -0.49033797 0.36484638
63.86171 -8.2034912 -7.506403 -0.87146485 -0.43397462 0.22850613
62.981525 -6.8417211 -8.4195385 -0.87032342 -0.42250687 0.25303176
61.923492 -5.1394401 -9.0649786 -0.85841739 -0.44350889 0.2577197
55.093323 1.8185465 -15.676205 -0.76437843 -0.52324736 0.37674636
45.725441 9.2690964 -21.360535 -0.63624865 -0.61223191 0.46942499
56.877846 0.53417146 -13.826938 -0.78726274 -0.51278335 0.34244794
51.509327 6.1546741 -16.612411 -0.71556199 -0.5646432 0.41127735
48.828167 7.3125205 -19.321737 -0.67373073 -0.58844972 0.44700536
47.432705 9.1387825 -19.03561 -0.66496533 -0.5910337 0.45661819
59.422779 -1.3856119 -10.321211 -0.81421208 -0.48966289 0.31191185
50.309448 5.7787104 -19.12211 -0.69108337 -0.57666284 0.43573356
43.376259 10.027537 -23.212011 -0.59037298 -0.62517935 0.51050037
61.855923 -3.6050818 -6.557116 -0.86600983 -0.43269828 0.25059769
51.932121 6.8048697 -14.907795 -0.72929078 -0.56399453 0.38735667
43.826675 11.71857 -20.61355 -0.60150611 -0.62879163 0.49275902
69.319077 -17.813644 2.6596904 -0.74483269 -0.64409852 -0.17424451
55.442463 2.7735083 -13.72385 -0.77170992 -0.52269369 0.36229154
39.006092 12.933852 -24.246037 -0.53188914 -0.6518569 0.54053342
63.461803 -6.4737878 -5.9095564 -0.8764571 -0.41468772 0.24465671
53.39093 4.5089884 -15.445084 -0.74741709 -0.54083407 0.38583192
49.249275 8.8983355 -16.620855 -0.68967968 -0.58516097 0.42653093
41.554817 12.418486 -22.262209 -0.56325632 -0.64521885 0.51617336
58.214054 0.84303796 -10.010868 -0.8118884 -0.48169553 0.32985827
57.154564 1.283289 -11.99031 -0.79997396 -0.49834007 0.33421376
39.637314 14.052904 -22.399683 -0.54510272 -0.66260201 0.51363569
45.421124 10.926436 -19.512869 -0.6272437 -0.62239635 0.46817529
37.825771 14.893025 -23.027494 -0.51419818 -0.68311119 0.51861298
60.369408 -2.339334 -9.2891798 -0.83234984 -0.46828443 0.2964851
56.114235 3.5748391 -11.005172 -0.7826972 -0.51420325 0.35068506
42.4967 13.092363 -20.41725 -0.57234728 -0.6661194 0.47822952
68.320198 -14.293695 3.9938784 -0.95468003 -0.28754359 0.07684283
60.724117 -2.1500807 -7.9613042 -0.85122949 -0.45010206 0.2698454
53.640343 5.7482185 -13.089978 -0.74908847 -0.5513984 0.36718684
44.04628 12.977768 -18.543674 -0.60233676 -0.6562497 0.45445207
70.100433 -19.156895 4.3080726 -0.6450054 -0.70708191 -0.28983298
68.872162 -16.763317 3.8374171 -0.94577992 -0.32182792 0.043898556
58.56142 1.7418453 -7.9391136 -0.81676638 -0.49609548 0.29458782
64.504089 -6.830204 -1.9925414 -0.90902287 -0.37393674 0.18398015
63.359058 -5.565896 -4.8720407 -0.86728412 -0.42589107 0.25774997
56.781841 3.6414773 -9.461792 -0.79149508 -0.51748252 0.32518816
50.652882 8.7164326 -14.544889 -0.7062397 -0.5874328 0.395156
45.67329 13.012485 -16.326376 -0.63509548 -0.64467275 0.42550051
47.374271 10.241932 -17.747576 -0.65907937 -0.60860401 0.44183192
62.190117 -2.9131153 -4.2497945 -0.86647713 -0.428895 0.25547332
40.833992 14.802206 -19.895933 -0.5479039 -0.68247461 0.48376626
4.5378308 20.915535 -31.174156 -0.035912193 -0.76363444 0.64464933
69.153267 -16.211124 7.5839667 -0.9627142 -0.2693615 0.025015997
69.60141 -18.632011 5.7305341 -0.94543839 -0.32443258 0.029829495
68.736771 -15.472383 5.6792107 -0.96378666 -0.24627627 0.10229068
54.685814 5.4320874 -11.417027 -0.76139027 -0.54421604 0.35229775
47.838417 11.589012 -15.019787 -0.67209208 -0.62066132 0.40382141
35.62907 17.369787 -21.861303 -0.49743876 -0.705082 0.50538492
51.942127 8.6371574 -12.100421 -0.73235613 -0.57547951 0.36397508
41.544331 15.75843 -17.666857 -0.57133037 -0.67966861 0.46003497
4.3478284 22.271723 -29.545231 -0.030993458 -0.78076279 0.62405837
71.643127 -24.185091 12.230994 -0.27857882 -0.83946884 -0.46656829
60.871876 -0.78634971 -5.2155213 -0.855591 -0.45137349 0.25342852
56.214455 5.7620831 -7.1755776 -0.79041344 -0.53904235 0.2909984
53.086807 8.6811953 -9.7454147 -0.74440974 -0.57726616 0.33558598
43.382599 14.823496 -16.688837 -0.5969404 -0.66974837 0.44170055
60.413269 0.65760982 -3.9953375 -0.8433243 -0.48059595 0.24048218
59.495075 1.0503643 -6.2601399 -0.83372825 -0.48215899 0.26910937
58.225372 3.5430698 -5.4528661 -0.81201166 -0.51780748 0.26928136
50.403091 11.374576 -10.645444 -0.71461076 -0.60494632 0.35124269
40.15696 17.319817 -17.04652 -0.55019057 -0.69958019 0.45593634
37.400921 18.107557 -18.995216 -0.51702261 -0.70777482 0.48139632
54.807941 6.5375271 -9.2793064 -0.77193624 -0.55253232 0.31436047
49.3773 11.287245 -12.884402 -0.69331408 -0.61541212 0.37494466
42.8354 16.592762 -14.753358 -0.58354831 -0.69530386 0.41955203
45.088062 14.926683 -14.107117 -0.63270754 -0.66462374 0.39743727
61.192326 0.48643047 -1.5882013 -0.85332382 -0.47309896 0.21912505
47.296463 13.403966 -12.881226 -0.65506583 -0.64842641 0.38785544
71.562538 -26.216084 16.093319 -0.66234338 -0.64295977 -0.38458264
-38.918686 9.1192684 -27.383024 0.19254206 -0.96213257 -0.19294685
59.449039 3.529496 -1.419921 -0.83442718 -0.50004989 0.23169245
56.609436 6.7482057 -4.0888662 -0.80269617 -0.53726059 0.25890139
53.757256 9.3784847 -6.7267962 -0.75705636 -0.58118218 0.29848436
48.450687 13.658578 -10.537879 -0.68334615 -0.64368135 0.34454659
38.252373 19.06365 -16.563753 -0.51700348 -0.72681779 0.4521541
63.354076 -2.4511039 1.5080185 -0.89416027 -0.42146343 0.151149
46.026501 15.324899 -11.724038 -0.6363669 -0.67155492 0.37954077
58.753578 3.683217 -3.6355872 -0.82427758 -0.50659311 0.25284374
51.285816 11.775978 -8.1278162 -0.72568256 -0.6157459 0.30698812
44.020145 16.650181 -12.823001 -0.61836326 -0.69283122 0.37096041
2.8794622 24.279041 -26.928274 -0.0059174839 -0.80455428 0.59384966
60.211208 2.8643141 -0.079246119 -0.84897017 -0.48896411 0.20040895
39.550014 19.326361 -14.560504 -0.55012286 -0.72515798 0.4141385
57.670158 6.0898137 -2.1525958 -0.80923665 -0.53692257 0.23843302
47.00882 15.180815 -10.511606 -0.64112365 -0.67250514 0.36972609
44.64296 17.430174 -10.214041 -0.61965221 -0.69968861 0.35562199
