# .PCD v0.7 - Point Cloud Data file format
VERSION 0.7
FIELDS x y z
SIZE 4 4 4
TYPE F F F
COUNT 1 1 1
WIDTH 1279
HEIGHT 1
VIEWPOINT 0 0 0 1 0 0 0
POINTS 1279
DATA ascii
-0.07521987 -0.067916036 0.044675902
-0.095522404 -0.016266584 -0.063386053
0.08206296 -0.03543371 0.01353889
0.066352367 0.025578201 0.065581426
0.049177885 0.053673506 0.095620103
0.10204959 0.003174901 -0.050137565
0.0033500195 0.091484249 0.016372748
-0.0017650127 0.031385422 -0.070302963
-0.010854483 0.10656124 -0.023911208
-0.08840394 -0.022734225 0.027190208
0.098165751 -0.04621619 -0.088181481
-0.0078570843 -0.074146032 0.064238951
0.060980797 -0.062479436 -0.075898081
-0.021382809 -0.041412354 -0.070951119
0.019162178 0.036734879 0.082891949
0.088721752 0.021559775 -0.047224313
-0.0012636185 -0.10475904 0.010612682
0.069330215 -0.043197095 0.0092913806
-0.063109398 0.01810807 -0.069851741
-0.021965265 0.10519367 -0.04251495
-0.027600527 -0.011928439 0.0975715
0.081410885 -0.039675236 0.0011096001
-0.057090044 0.079478562 0.054566659
0.061846256 0.04009974 0.061151534
-0.081256628 -0.028911889 0.040747732
0.028667927 0.014577448 0.097374976
0.0077836514 0.10694462 -0.013138689
-0.078810453 0.027572393 0.086608097
-0.074826479 -0.071649969 -0.068755016
-0.0055439472 -0.079996943 0.038761985
-0.0014326572 -0.069849253 0.095542744
0.038416862 0.062600613 0.076841377
0.018425226 0.0526613 0.096763223
-0.00056552887 0.058889627 0.082569383
-0.068393707 -0.021957517 0.096756451
0.054946661 -0.043534398 0.068085581
0.0039036274 -0.10004056 0.040600907
-0.058356762 -0.089194477 0.0077922344
-0.078525305 0.03905201 0.035547428
-0.0066065788 -0.093393087 -0.0059452802
-0.001832962 -0.069620371 -0.071469933
0.01406002 0.0043050051 0.082788177
0.033921719 -0.093599021 0.040980157
0.090598822 -0.014001966 -0.027104571
0.021845579 -0.023064077 0.082403481
-0.02555871 0.0020231605 0.096611418
-0.07275486 0.074836493 0.028275535
-0.096271515 0.0073527098 0.062791705
-0.070211649 -0.023630738 -0.070264235
-0.08811903 -0.037802637 -0.0048182905
-0.088827848 0.0077562332 -0.0088381022
0.082356691 -0.017220378 -0.014361538
0.072188616 -0.071767986 -0.081880465
-0.0081992149 0.10412633 -0.091238096
-0.081257343 -0.013277292 0.036971994
0.082500219 0.0046396852 0.038876489
-0.075401306 0.076548994 0.0054275095
-0.032791853 -0.073073268 0.043329991
-0.037158489 0.046354294 0.097238235
-0.099892616 0.054232538 -0.087622389
-0.024259806 0.10094321 -0.073470935
-0.054173708 -0.041146755 0.096813433
-0.025673151 -0.07375288 0.05825267
-0.097657442 -0.013702512 -0.089371666
0.038893938 -0.096575797 0.011504851
-0.089018583 0.017731667 -0.024196364
0.038369179 0.098199487 -0.040690631
-0.087948561 -0.062800586 -0.0065832585
0.03633976 -0.055697978 -0.071685269
0.10079527 0.0055679679 -0.05880104
0.083396196 0.036660075 0.065785602
-0.076359749 0.027106941 0.055192545
0.039657831 -0.073197007 0.0406854
0.045595884 0.082544148 0.058814339
0.065364361 0.031603873 0.082485788
-0.0079996586 -0.030023515 0.082645729
-0.061594009 0.0071878433 -0.069992915
-0.038469553 -0.077958524 -0.010601223
-0.057669878 -0.060012758 0.022290275
0.10324979 -0.0015902519 0.0054560676
-0.06756115 0.011975348 0.075135745
0.011210442 0.061924636 0.079292499
-0.090935469 -0.036098003 0.057533167
0.047290802 0.01162082 -0.071015015
0.048955679 -0.092465758 -0.092845947
0.0048370361 0.10655153 -0.043319106
-0.023086548 -0.10819763 -0.085972592
-0.076059818 0.08165133 -0.08914873
-0.066783667 -0.042836964 0.053301949
0.0073468685 -0.10004795 -0.073308796
0.054156065 0.09005636 -0.042182356
0.0043725967 0.034012854 0.083188765
-0.023701429 0.03567344 -0.070037141
0.11487556 -0.001154542 -0.05862011
-0.064102411 0.063236356 0.031040709
0.079445124 0.066923857 -0.047652602
-0.0017199516 -0.089436889 -0.040102199
-0.096331358 -0.0034508705 -0.016062438
-0.031745911 -0.068595529 0.078103989
-0.0084273815 0.096799791 0.053363934
-0.012989521 -0.096231163 0.055552289
-0.043516397 0.086497307 -0.087501988
0.071701527 0.075530469 -0.043037251
0.067061901 0.054840505 0.075652011
-0.07152462 -0.073694468 -0.073873356
0.13036394 -0.0097007155 -0.054082349
0.0081231594 0.082974494 0.012534738
0.001449585 0.020402551 0.083147004
0.0094411373 -0.092844188 -0.036855832
0.086858988 0.066536129 -0.084973618
0.017158031 0.087659597 0.071681716
-0.081325769 0.039512634 -0.022252858
-0.049397707 -0.051710367 0.070193365
-0.070055008 0.028903365 0.077674106
-0.047326565 -0.093274415 -0.09283483
0.090473652 -0.0060952902 -0.055084243
-0.010187149 0.074409962 0.071167454
-0.090904951 0.035888314 -0.068615586
0.0030732155 0.080426157 0.034773979
0.078841686 0.015235782 0.022638507
0.037630081 0.08388418 -0.055628493
0.10626101 -0.010519803 -0.091059864
-0.021812439 0.020264208 -0.070233896
0.066679478 0.045815229 0.045312069
0.038220644 -0.038424969 -0.071504146
0.074579239 0.063465178 -0.09262298
0.083552837 -0.062646329 -0.0038953796
-0.030433178 -0.021210968 0.082889766
0.061122417 0.08600086 -0.0064545721
0.085752964 -0.015500426 -0.038607255
0.0072598457 -0.078666091 0.044076961
0.079822302 -0.0642097 0.017569572
-0.02028203 -0.031418324 -0.070846438
-0.062659025 -0.088220239 -0.011801764
0.050444603 0.073169172 0.07238479
0.098152876 -0.019785702 -0.079914689
-0.020569801 -0.074437618 0.05899743
0.048338413 0.092686653 -0.045681745
0.10431552 -0.003718555 -0.017163336
0.033201694 0.08184135 -0.028270058
0.012213469 0.10257477 0.023756407
0.0993855 -0.028560102 -0.083160669
0.017603397 0.092347026 -0.036645412
-0.04967618 -0.080866337 -0.036320925
0.0491786 0.07484895 0.02240511
-0.068252563 0.053925991 0.037610654
-0.0026702881 0.073378861 0.064917319
0.056723118 0.085866511 0.023775287
-0.0083806515 -0.094074309 -0.091039672
0.041392088 -0.018323421 -0.071303025
0.042851925 0.059877217 0.095295176
0.068679333 0.062764466 -0.037869111
0.081056595 -0.042992413 0.063486561
0.082660198 -0.0085523129 -0.0019231737
0.052789211 -0.070486069 -0.039138034
-0.0065250397 0.087627292 0.032949254
0.098243952 0.049858868 -0.087898687
-0.052170038 0.026688516 0.097158879
0.14662862 -0.010762095 -0.036817953
-0.10820866 -0.011778414 -0.030515976
-0.05571723 0.074154377 -0.073827043
-0.092551708 0.012716174 -0.040686369
0.060265779 0.068573177 0.002563037
-0.085607529 -0.032917619 -0.033051424
0.10329008 -0.013737082 -0.014466889
-0.036797285 0.096762598 0.027290657
-0.068050385 -0.058768034 -0.023108065
0.074811935 0.0019000173 0.092467524
-0.10347462 0.016359389 -0.071070924
-0.045172215 -0.060770571 0.081114188
0.0066204071 0.085481465 0.037006676
-0.06789422 -0.063072205 -0.068491995
-0.083233595 -0.031021118 -0.01276543
0.029504299 0.082353413 -0.019498564
-0.017930746 -0.090763509 0.066971965
-0.078197002 -0.0340271 0.014714524
-0.019532442 -0.0030674934 -0.070526093
-0.027393103 0.10411066 -0.013446882
-0.085596323 0.044876277 -0.032878339
0.057229757 0.085181117 -0.063886821
-0.021884441 0.029669106 0.098064817
0.051329613 -0.064295709 -0.071932435
-0.074605942 -0.059668124 -0.050065175
0.033961296 0.072127342 0.030887973
0.058552742 0.066941023 -0.040183023
0.0075309277 -0.0049488544 -0.070814624
-0.067693949 0.035951793 0.0703234
-0.10398889 -0.0295735 -0.080348566
-0.052303791 0.080901861 0.058735639
0.08663106 0.0053800941 -0.07728982
0.069483995 0.059124172 -0.058181927
0.072650433 0.0695557 0.032596748
0.0096263885 0.063260138 0.097448535
0.034092188 -0.0085347891 -0.071117908
-0.087928057 0.051518559 0.042087242
0.084960699 0.021291912 0.072586879
0.015366793 -0.091507435 -0.048565865
0.094759464 0.0076012611 0.053378053
-0.078760147 -0.028357625 0.08559148
0.03570509 0.098034382 -0.054753423
-0.0096738338 -0.089100957 -0.03389512
0.068480253 -0.024713457 -0.071643919
-0.020740986 -0.10830736 -0.089680672
0.075581551 -0.039566457 0.077008858
-0.061915159 0.070728064 -0.083717331
-0.027390718 -0.090368271 -0.03015513
-0.040521622 -0.099375546 -0.028710276
-0.079715014 -0.02743119 0.046247184
-0.02212739 0.076897383 0.03964296
0.0092918873 -0.076093554 0.064231411
0.049184084 0.045296192 0.073137909
-0.031967402 0.075280249 0.050004464
0.048306704 0.061257243 0.041133083
0.10182786 -0.0053784847 0.020765126
-0.10239553 -0.017808795 0.035919093
0.072117567 -0.069464207 0.032706756
0.0069167614 0.010300159 -0.070632294
-0.07929492 -0.071491957 -0.048095897
-0.034846783 0.064916313 -0.069589227
0.079027653 -0.030022264 0.034652159
-0.017202139 0.09610182 -0.089112565
-0.07096839 -0.057339132 0.027435645
-0.033000946 0.10212201 -0.090479672
-0.07066679 -0.060402572 0.017040811
0.015964031 -0.058108687 0.095506974
0.10247517 0.0067462325 -0.044518694
-0.077855587 0.057206869 0.060439497
0.0085463524 0.093491137 -0.0055669621
0.01341939 0.029636264 0.097701073
0.080212831 0.060461819 0.031382635
0.07374835 -0.053845942 -0.067532346
-0.078353643 -0.025224388 0.033136971
0.073441982 -0.016021907 0.059080422
0.08845067 -0.020046949 0.065512046
0.026924372 0.036666811 -0.070524722
-0.00083136559 0.091022551 -0.038737833
-0.094295502 -0.048562229 0.020011559
-0.010680914 -0.083391845 0.0092147589
-0.046211481 -0.082003832 -0.0043601766
0.071292877 -0.054302692 -0.05478394
0.047661781 0.070610046 -0.0065490603
0.011271 -0.019361198 0.096001163
-0.083174944 0.050432146 -0.069280267
-0.062491655 0.059646487 0.039066285
-0.0923419 0.031140387 0.060134225
0.058767796 -0.056398332 -0.071914464
-0.073991299 -0.029456615 0.057197642
0.14888382 -0.0067273974 -0.023585171
-0.10702848 -0.021480978 -0.010095455
0.02061224 -0.071028948 0.081656151
-0.018316269 -0.079718471 0.025342107
0.027972937 0.014323652 -0.070793346
0.089063168 0.040417075 0.045652352
0.033053637 0.06363517 0.066018596
0.057420254 0.089184701 -0.02862829
0.061725616 0.0045056939 -0.071239561
-0.0029175282 0.077362359 0.053571023
0.05271554 0.066075325 0.035535693
0.066105127 0.056703627 -0.025134854
-0.10582542 -0.015993893 -0.057336003
-0.053565025 -0.035300195 0.096456036
0.071487665 0.04237777 0.038673498
-0.093378305 0.0066293478 -0.074475497
-0.097165108 0.0081210136 -0.027778551
-0.09595561 -0.01380676 -0.020778283
-0.051493883 0.075159729 -0.031267434
-0.096323729 -0.0058979988 -0.037305415
0.062076569 0.066354632 0.0064420551
-0.10774255 -0.013495684 -0.038406432
0.070561647 -0.057987034 -0.07094197
0.087815285 0.036609709 0.054400768
0.021990061 0.033417761 -0.070513636
-0.027545214 0.018769264 -0.070194677
0.023793221 -0.052144587 0.096324094
-0.06709981 0.049537778 0.025398768
0.080224514 -0.012236893 0.04400051
-0.095451593 -0.017210186 -0.014444768
-0.013826847 -0.06797415 0.071940601
-0.11212969 0.014496922 -0.088725761
-0.042721748 -0.084471047 0.063022152
-0.078881264 0.074174166 -0.0090910196
-0.057729959 -0.087554932 -0.079797596
0.037604332 -0.055369914 0.073275432
-0.017111301 -0.082061112 0.0429768
-0.088016272 0.030255795 0.070450336
0.069437265 0.053290009 0.027347468
-0.091090679 0.0025888085 -0.025407493
0.074166536 -0.044745922 -0.032434046
-0.10057163 -0.039943993 -0.038951859
0.047184706 -0.079798877 0.063100457
0.057262897 -0.061584711 0.080221295
-0.084374189 0.037552416 -0.034546785
-0.011722565 0.082446277 -0.06961453
0.091644764 0.044682205 -0.092767969
-0.060302734 0.063203931 -0.001950942
0.080220699 -0.065465748 -0.083462119
0.052480936 0.048856378 0.096383527
0.077974319 -0.064477265 0.026453387
0.026907682 0.068490207 0.076894835
-0.065929651 0.070818365 -0.029108703
0.074395418 0.014820993 0.056579452
0.05984807 0.069155574 0.065088078
-0.057412624 0.0056831837 -0.070051521
-0.087571859 -0.039506137 -0.061080843
0.065598488 -0.059416056 -0.048019588
0.14065027 -0.0093516111 -0.032802373
0.013329744 -0.10449874 -0.038316876
0.046119928 -0.094455898 -0.030592866
0.037623167 0.069399357 0.036288694
0.0074770451 0.041871846 0.083039857
-0.05881834 -0.090149343 -0.010553122
0.087635517 -0.027640462 -0.018167898
-0.052903414 0.094453871 -0.013845123
-0.026936769 -0.10240918 -0.037675634
-0.046859026 -0.076766789 -0.031899601
-0.080554008 0.018256307 0.031534314
0.038102627 -0.0063709617 0.082283154
0.034446478 -0.077173412 -0.0026313141
0.074787617 -0.047471523 0.07139837
-0.058793068 0.085568607 0.027943686
-0.054166317 0.088713288 0.027239185
0.070390463 0.01871103 0.076958254
-0.011857748 -0.10634959 -0.019310758
-0.000395298 0.016247988 0.096527807
0.073436975 0.013015866 0.067395888
-0.029410601 -0.10490751 -0.090942159
0.063312769 0.03664434 0.074838594
-0.049190044 0.082452655 -0.026022986
-0.018695116 0.091298759 0.0099765733
-0.09156394 0.017900109 0.01554063
0.027754307 0.096370041 0.039032049
0.065820217 0.04095602 0.053446237
0.04881072 0.039410591 0.078484342
0.064265251 -0.016933382 0.072716981
0.068598032 0.033903658 -0.070967466
-0.086854696 0.042009652 -0.040067151
-0.079828024 -0.078975618 -0.088623285
-0.021259546 0.10598201 -0.016860783
-0.011875153 0.083095074 0.043043252
-0.067704916 -0.048351228 -0.070574716
0.10057974 -0.023032308 0.0035066679
-0.0053124428 -0.093740821 -0.034151897
-0.0039739609 0.060750961 -0.069941714
-0.0928545 0.034130812 -0.088655502
0.094968557 0.037227988 0.018841073
-0.056932449 -0.09553206 -0.08519727
-0.036531687 -0.065153956 0.064423308
-0.062728405 -0.017112374 0.079834141
-0.11337423 -0.016974092 -0.087438822
0.066417694 0.057908177 -0.032057047
-0.051932812 0.075875223 -0.07781373
0.070287466 0.016144395 0.064062238
0.085095644 0.0071008801 0.076449148
-0.01098299 0.099790454 0.04093368
-0.013834238 -0.064930916 -0.071297407
-0.025137663 0.091979444 -0.019351766
0.0015733242 -0.10298371 0.023916535
-0.030076504 -0.10203153 -0.0017423332
0.075134993 -0.028764844 0.020933658
-0.071006536 -0.081538796 -0.08247976
-0.08355546 -0.0036550164 0.048199773
0.041046858 0.097625673 -0.025948994
0.018146515 -0.089531064 -0.058496371
-0.0048360825 -0.056518376 -0.071288854
0.08737421 -0.026806056 -0.041246086
0.14286637 -0.0011120439 -0.026795134
0.061362267 0.063388348 -0.078687698
-0.041152239 -0.096612811 0.018698193
-0.043604851 -0.027302921 -0.070568964
-0.072504759 -0.010274827 0.068854883
0.079327822 -0.024511158 -0.002611883
-0.0077536106 0.0096114278 -0.070495635
0.026731968 -0.045889676 -0.071477175
0.014913082 0.072299302 -0.069994405
-0.023437977 -0.10329032 -0.092479274
0.058219433 -0.045588732 0.075780705
0.01453805 0.087703228 0.026627406
-0.075136185 0.070044935 0.035863001
-0.075669289 0.016889691 0.066054866
0.071841717 -0.082729518 -0.087904871
0.095326662 0.0042039752 -0.093214631
0.067762613 -0.079746246 -0.034329034
0.031062841 -0.087883055 0.062887341
0.090034485 0.011099219 0.00060609728
0.039901495 0.018296838 0.097257458
0.027001143 -0.068229914 0.095331416
0.075642347 0.035494983 -0.071018502
0.013963699 -0.064682245 -0.071568564
1.6927719e-05 0.0085522532 0.096954159
0.073334694 -0.041900754 -0.015485525
-0.081335068 -0.049247146 -0.003689371
0.084813118 -0.049839199 0.041405335
0.061067343 0.007781744 0.096408628
-0.0087358952 -0.096693933 0.056331873
-0.093163729 -0.0137766 0.012153357
-0.065418959 -0.059407175 -0.013419837
-0.10883093 0.00080680847 -0.010101445
-0.043870687 0.014570713 0.098043323
0.0044724941 -0.05341059 -0.071344703
0.10015321 0.018233299 -0.080273718
0.10136771 -0.0090566874 0.023698404
0.018685341 0.088248312 0.018765047
-0.078837156 -0.03614521 0.0056897774
-0.08612752 0.03535527 -0.076393187
-0.10857415 -0.004650116 -0.010929689
0.12508225 -0.0092154741 -0.052071556
0.050672293 0.087731361 0.030535553
0.032179356 -0.065670609 -0.071759552
-0.07639122 0.028812468 0.039972611
0.064097166 -0.06538415 -0.040873691
-0.093558788 0.026140332 0.059671998
0.023650885 -0.032341063 -0.07129018
0.021932125 -0.086344302 -0.071604356
0.010273695 0.10399079 0.016837835
0.074290991 -0.0061354041 0.068293393
0.090835333 0.020883203 -0.091067031
-0.036665678 -0.094963193 0.039930716
-0.053230762 0.068251193 0.038133092
0.032680035 -0.099782646 -0.0050941482
-0.039102316 0.014094949 -0.070134774
-0.053959846 0.06359452 -0.069416106
0.048349142 0.048918962 0.070041843
0.065055132 0.055733621 -0.014491983
0.017154932 0.10812634 -0.082499295
-0.018780947 -0.092191458 -0.018975183
0.10387397 -0.0048933029 -0.060124055
-0.11441493 0.0049006939 -0.083655238
-0.085500002 0.063215494 0.017464317
-0.073661804 0.0080239773 0.097216368
0.05106616 0.092480421 -0.013458028
0.055671453 0.073131204 -0.00066056103
0.1005435 0.0017938018 0.06039571
0.12672925 -0.0092895031 -0.057428569
-0.023291588 -0.089734316 -0.05448316
0.031715393 -0.022016227 0.096927457
0.10430336 0.006696105 -0.091978818
-0.096248865 0.044912755 -0.091091901
-0.033602953 -0.088675082 -0.040128961
0.13925123 -0.011133492 0.013550319
0.010048389 0.0065402985 0.09701179
-0.066231251 0.083243549 0.014171183
-0.092287064 0.028100729 -0.06944859
0.005518198 -0.10325032 0.020622514
-0.049306393 -0.075825572 0.073567748
-0.057428122 0.049045622 0.075594708
-0.073444128 -0.07173115 0.036212817
0.010028362 -0.021741688 0.082588933
0.028710842 0.0042615533 0.082678109
0.062297583 -0.064525604 -0.056165561
0.08689332 0.024478614 0.066594124
-0.087568998 -0.05316627 0.038335856
-0.10611463 -0.020122886 0.0089488029
0.040391445 -0.096592784 0.0058472306
-0.1021452 0.046519399 -0.088873312
0.050273418 -0.088715613 -0.081530362
0.062140465 -0.083795607 0.0020874441
0.028325558 0.081890225 0.031809136
-0.036154509 0.046683192 -0.069787115
-0.060054779 -0.088841379 -0.037912548
-0.056603909 -0.090461612 0.0038794428
0.022609949 -0.058781385 0.096033402
-0.0056140423 -0.093900979 -0.022884682
-0.0020089149 0.090237439 -0.033797726
0.079529524 -0.045580566 -0.030410543
0.065932512 -0.036886275 0.058394257
0.01391077 -0.082422435 0.0086996779
0.047345877 -0.0037376285 0.096876636
-0.086630344 -0.02001673 -0.011426352
0.013208866 0.081186712 0.045500848
0.066414833 0.065230966 0.061240379
-0.014745235 -0.076689541 0.054970562
-0.092673302 -0.0064468384 -0.083331332
0.009021759 -0.093047261 -0.016483679
-0.037412405 0.070436656 -0.069500133
-0.011089325 -0.10977966 -0.085703135
-0.066106796 0.051970541 0.019453101
-0.054344416 -0.09108144 0.0093849748
-0.082593441 0.018390059 0.017740764
-0.027590036 -0.024946868 -0.070699587
0.030280828 -0.085008025 -0.053938881
-0.013251066 -0.082042336 0.015528217
-0.071560383 0.0051102638 -0.069918677
-0.059410572 -0.078673244 -0.091762856
-0.088363409 -0.072471738 -0.086685002
0.01702404 0.071007609 0.080912516
-0.0061128139 -0.054419696 0.081646122
0.018393993 -0.077868581 0.033211615
0.085029364 -0.015992761 -0.077914849
0.039829016 0.071660876 0.014769487
0.10579753 -0.020905852 -0.089440167
-0.047603369 0.067228019 -0.069436759
0.078747272 -0.0081019402 0.030182544
0.049487114 -0.072135985 -0.076397657
-0.098606825 0.022437036 0.045791887
0.062427282 -0.06066066 -0.086058751
-0.0021929741 -0.026701331 0.082648672
-0.10186386 0.0069686174 0.045040123
0.055365801 -0.078332663 0.053908154
-0.060010672 0.075381815 -0.022134632
0.047666311 0.0072405934 0.082019083
0.011732578 -0.092676222 -0.011035867
0.069675922 -0.043828309 -0.071876675
-0.021216154 0.10465562 -0.04889524
-0.10494018 -0.018829942 0.021094859
-0.026493788 0.086693823 -0.032089092
0.00024056435 0.10277861 -0.072580144
-0.0678339 -0.0034046769 0.076100186
-0.051944971 0.064678013 0.0258293
-0.013385057 -0.078490615 0.043119624
-0.083564758 -0.0071487427 0.023232125
-0.011138439 0.084743559 0.00046513975
-0.040577412 0.086792707 -0.043413728
0.058924437 -0.054550886 0.085748233
0.030327797 -0.060515642 -0.071681708
-0.013317347 -0.092548788 -0.002886489
0.0025537014 0.095535576 -0.08810541
0.059348345 0.061706007 -0.01563181
-0.096603155 -0.0017827153 -0.02128911
0.10272431 -0.016028523 -0.0090709031
0.026630163 0.085968077 -0.034843147
0.08774972 0.056373715 -0.030796953
-0.080202103 -0.024128735 0.085557014
-0.021550655 0.050755858 0.082933113
-0.0042617321 0.074353933 0.073594406
0.057716608 -0.0060192943 -0.071321711
0.017620802 0.093755364 0.057118509
0.037182331 -0.070054471 0.035280414
-0.10794187 -0.015307903 -0.033331268
-0.016278744 0.052921891 -0.069910929
-0.028859854 0.036404908 0.098126225
-0.0034914017 -0.083467305 0.083567359
-0.075633764 0.00062060356 0.081211224
-0.010672092 0.080206871 0.050693106
0.036855221 0.085971653 -0.020037636
-0.085479975 -0.02928108 0.030975759
0.091765404 -0.037576079 0.038181402
0.069886684 0.03296715 0.055026345
-0.071702957 0.044789791 -0.069458574
0.041829824 -0.096500397 -0.034061596
-0.037575006 -0.087271869 -0.090328172
0.088601589 -0.039962113 0.046628293
-0.021620512 -0.022544563 0.097409897
0.027184248 -0.088156641 -0.0050213262
-0.038602591 -0.099476635 -0.041726395
-0.076917171 -0.072108984 -0.057581976
-0.0033633709 -0.060759485 -0.071352407
0.012200832 0.080308318 0.085828327
-0.077773333 0.054451227 0.065199703
0.067173958 0.080883563 -0.015333548
0.033627033 -0.082091808 -0.039465412
0.089392424 0.058494866 -0.090577438
-0.074244499 0.055994034 -0.082081512
0.0079624653 -0.091118813 0.010088786
-0.053640842 -0.083742321 0.050286312
-0.024877548 0.095787048 -0.089825898
0.065745354 -0.061148167 -0.089724392
-0.044328213 -0.082178295 0.0037581921
-0.087682962 -0.0067194104 -0.0052125454
0.067862749 -0.076991141 0.020311177
0.023893595 0.0061497092 0.082769379
0.023968458 -0.069387853 0.063799992
-0.049767971 -0.010134876 0.097752519
0.00093221664 -0.011572003 -0.070826113
-0.033466578 0.073442638 -0.069504276
-0.09691143 0.040890872 -0.06891799
0.040675402 -0.073635936 -0.005926922
0.055723429 0.068939984 -0.037131339
0.085157156 -0.064672709 -0.091285706
0.00022029877 -0.030451655 0.082561038
-0.051906109 -0.058004856 0.059344161
-0.0076203346 0.019347906 0.083222747
0.041312933 -0.087697506 0.053243786
-0.095480442 0.012917459 -0.060508311
-0.069196701 0.027061284 0.066921473
0.02559185 0.068256795 0.082653359
-0.052103758 0.094888568 -0.031659909
0.0073020458 -0.022939622 -0.07102035
0.053754807 0.075863361 -0.065090939
-0.090080261 -0.002174437 -0.020166345
0.021515369 0.099906325 -0.069326535
-0.091926575 0.017040372 -0.083739012
0.043645859 0.081649601 -0.061010107
-0.080550432 0.024420679 -0.069606826
-0.035763502 -0.0089619756 0.083088376
-0.033010721 0.079834044 -0.0016851127
0.021622658 -0.024851143 -0.071183607
-0.052496195 -0.070617318 0.033564448
0.079216957 -0.06893146 -0.092287689
-0.091697454 -0.024557292 -0.055817008
0.063166857 0.047749221 -0.070753872
0.027028084 -0.090066373 0.060713992
0.04133606 0.057839215 0.067162976
0.059799433 -0.088444412 -0.085575387
-0.069495916 0.081977665 0.007727474
0.018154621 -0.10418522 -0.033888616
0.028187752 0.027902663 0.082743958
-0.05821085 0.091088593 -0.018331029
-0.0016186237 -0.075463891 0.07412678
0.024733543 0.095965028 0.04397919
0.071337223 -0.071602881 -0.060085878
0.1022737 -0.018264949 -0.022516787
-0.069783449 0.071574211 0.049121998
-0.063695431 0.05631721 0.011991158
-0.08783865 0.01919657 -0.018390805
-0.092500448 0.031835437 -0.067335948
-0.086578369 0.06276983 -0.057263106
0.10237479 -0.0059416294 0.016472645
0.013400555 0.059105873 0.082039684
-0.09010911 -0.035333097 -0.070203364
-0.068562269 -0.033802092 0.078552037
-0.049891949 -0.07600677 -0.075711206
-0.086658955 -0.012815893 0.037808076
-0.064651251 -0.051745415 0.050258078
-0.017737865 -0.092543781 0.062906399
0.029221773 0.077295363 0.013509355
0.01214385 0.10424864 -0.053131118
-0.022166729 -0.088992655 0.013097152
-0.097661972 0.01464355 0.054852057
-0.04015398 0.063478172 0.063777179
0.092227936 -0.043215036 -0.082063109
-0.10072541 -0.038555324 -0.091457367
-0.092368126 -0.050992727 -0.060682043
-0.062250137 0.0037002563 0.0969925
-0.066620588 -0.021301389 0.073250018
0.037128925 -0.078606486 -0.024723217
-0.090362787 0.020953 -0.076751649
0.034250736 -0.096792758 -0.055267274
-0.08058548 -0.035536408 0.036008321
0.039417505 0.052957535 0.074492648
-0.067620754 -0.053620458 0.0049804971
-0.076699495 -0.046184301 -0.021020949
0.0041098595 0.089443386 -0.026277475
-0.10218692 0.037488163 -0.042705163
0.087297201 -0.044167876 0.043370731
-0.083875179 -0.03354615 -0.022701748
0.014733791 -0.052322567 -0.071433276
-0.085892439 -0.051574528 0.048725817
-0.094207764 -0.0036576986 0.0084030926
0.026474714 -0.088468909 -0.071538493
-0.076565981 -0.049343884 -0.032854438
0.064962864 0.033492088 0.077291459
0.083373308 -0.0078505874 -0.0064278319
0.077296972 -0.066342235 -0.05384627
-0.059029341 0.07702142 0.057627901
-0.053191662 0.050448477 0.067496017
0.06995821 0.077058613 0.0043794438
-0.084429026 0.068009079 -0.090397835
-0.062747955 0.087842166 -0.0092548579
-0.0068533421 -0.082611978 0.046251841
0.093788385 -0.043139994 -0.038733542
0.066162109 0.051554322 -0.0043822452
0.014267206 -0.041900039 0.096835464
0.017591476 -0.060599923 0.079082221
-0.017271757 0.062957227 0.077668443
-0.093925476 -0.01992774 -0.0046594441
-0.0094025135 0.10503006 0.0088875592
0.0024497509 -0.026670456 0.082602151
-0.018564701 0.10992891 -0.088546172
0.025361776 0.027993143 -0.070609584
-0.031807661 -0.087296069 0.010292105
0.039630175 0.072386801 0.082878761
0.071725368 -0.020797133 0.064636454
-0.088529825 -0.054766476 -0.068090618
0.070819378 0.016887486 0.095261618
-0.037683249 0.081664443 -0.023073241
0.041699171 -0.07134831 0.0055087879
0.0034301281 -0.093354523 -0.017582446
0.10583711 0.02790904 -0.087034121
-0.044389248 -0.080493987 0.015522204
-0.060100794 -0.068114698 0.025016844
-0.010298967 0.044385374 0.09695071
0.068444014 0.015659153 -0.071176857
-0.037144423 -0.087399125 -0.033291385
0.0029263496 -0.018784344 -0.07092917
-0.0684762 0.032589734 0.075892359
-0.081408978 -0.067177296 -0.06218496
0.075968742 0.029396415 0.043277949
-0.10147452 -0.036748648 0.00051512569
-0.041598797 -0.085039556 -0.035389625
0.039773941 -0.042352259 0.096219592
0.020993233 0.047254443 0.097611398
-0.010439873 -0.093878865 -0.034943104
0.083006859 -0.035255253 -0.062024906
0.1472559 -0.010570645 0.0014610142
-0.019632816 -0.10236758 -0.053630546
0.14016008 -0.004499495 0.011324503
-0.067888498 -0.080179214 0.020813107
0.00051736832 0.10143948 0.035644297
-0.04989934 -0.071450293 -0.071017265
-0.088400364 -0.0083608031 0.077525415
-0.062251329 0.084552169 0.021817155
-0.046157598 0.062858105 -0.069501519
0.015133142 -0.077579439 0.043899648
-0.019995689 -0.090554833 0.0038128644
0.010952473 -0.086720765 0.076692447
-0.044821739 -0.09257865 -0.077918842
0.019012928 -0.10125226 -0.093557224
-0.028752565 -0.036709309 0.082434975
0.063042164 -0.077488482 -0.077606454
-0.012965679 0.013991833 0.083200879
-0.059037924 0.051125526 0.058309946
0.0043647289 0.078873277 0.055238586
-0.079544783 0.055709183 -0.029068343
0.051641941 -0.05592227 0.058693498
-0.053308487 0.070983291 0.07608778
-0.078894854 0.047997594 -0.033570394
-0.074729681 -0.057594299 0.0061550289
0.046756506 -0.075080872 -0.043919146
0.006377697 0.005359292 0.08274889
-0.055798292 -0.084991455 0.041201659
-0.031676769 0.0071697831 0.097872488
0.078966856 0.0023542047 0.049242035
-0.056487799 0.077038169 -0.048014998
0.056573153 -0.08360213 -0.062821358
0.088494539 -0.0032369494 0.019213177
0.041011572 -0.059259355 0.095342644
0.037367821 0.094424009 -0.071271092
0.021785021 -0.065247178 0.071238913
-0.082077742 0.068156898 -0.055098191
0.088592291 0.047270596 0.031947985
-0.10589647 0.017293334 0.010213003
0.0059320927 0.074702442 0.094951116
-0.057419062 -0.072763681 -0.067364067
0.05872345 0.055450976 0.021455087
-0.07869339 -0.044102371 -0.024936199
-0.05693388 -0.087001681 -0.064340055
-0.068075895 0.016717136 0.073111132
0.079190731 -0.063352227 -0.058031872
-0.049917221 -0.041431427 0.096349195
0.034843206 0.070046008 0.041223612
0.082098246 -0.0072467923 0.072704256
0.026181459 -0.10204947 -0.0084649473
-0.077266693 0.042676747 0.033579335
0.091697454 -0.0029170513 -0.035746634
0.032809734 0.071697891 0.037355278
0.061623335 0.034430802 0.096126646
0.055717707 0.066963315 -0.026354246
-0.051515341 0.0058583617 0.097914875
0.073589087 -0.0400424 -0.010329857
-0.058796406 -0.057354093 0.031558156
-0.079218626 0.051683366 -0.084410444
0.078122377 -0.044135392 0.0098177046
0.060755968 0.047775865 0.045424402
0.075591326 0.037367702 -0.0061572269
0.0014431477 0.1071645 -0.017174564
0.082850456 0.073416054 -0.085063398
0.085962772 0.010448456 -0.079475775
0.1027 0.00573349 0.0076007247
-0.10162139 0.029967666 0.02228792
0.039136887 0.028388679 0.082327098
-0.039685488 -0.027038753 0.082603075
-0.084389925 0.06741488 -0.0015865266
-0.071645498 -0.042123973 0.086330846
-0.089849234 -0.054449618 -0.062453926
0.085544825 0.058860838 -0.039404914
-0.002556324 0.094754755 -0.023479365
0.075220823 -0.0094618797 0.057102311
0.023630619 -0.054441214 0.081058793
-0.017596483 0.07480377 -0.069644973
0.0025954247 0.094486833 -0.010987081
0.010398388 -0.10416871 0.010320999
0.10312128 0.011884153 -0.031462498
-0.022352934 0.082897246 0.038016267
-0.033799171 0.0283342 0.083292313
-0.053044081 0.072787464 0.029105783
-0.014807224 -0.10571122 -0.015003443
0.076504469 -0.050136626 -0.044383779
0.083933353 -0.03371805 -0.090076819
-0.042292356 -0.073938549 0.0038352087
0.036767721 0.096526086 0.02135735
0.066746712 -0.04396981 0.02552107
-0.034281254 0.089807987 -0.068142086
0.033024073 0.09954536 0.013642743
-0.053092718 -0.03111732 0.097206071
0.083358049 0.01631701 0.032961536
-0.064527512 -0.031330943 0.071239494
0.027180433 0.071508706 0.056858499
-0.079517841 0.071958065 0.0055590719
-0.053557396 0.040629029 0.076551937
0.081687927 -0.038954139 -0.049693286
-0.07475996 0.048999369 -0.069379777
-0.045807838 0.074591339 0.077908009
0.0304389 -0.095989883 -0.067390993
0.068914652 0.02025044 0.064189598
0.039891243 0.097993016 -0.031832032
-0.0082144737 -0.073465049 -0.07145147
0.042791843 0.094794869 -0.052086413
-0.085834503 0.0032479763 -0.069799498
-0.086714506 -0.042641222 -0.029962368
0.07692647 -0.035109699 -0.016390346
-0.069824696 0.045321226 0.028963882
0.10083556 -0.016411066 -0.082059294
0.034721613 0.054026246 0.077310465
-0.048723698 -0.094698727 -0.037216395
-0.008005619 0.092820764 -0.060234785
-0.029572725 -0.074678123 -0.071254954
-0.017106533 0.092590809 -0.00024525821
-0.062367916 -0.083519042 0.028557412
0.080091238 -0.022314787 0.03769603
0.057203293 -0.086746633 0.0048738718
-0.0397861 0.063071072 0.079016685
0.026320696 -0.08138746 0.033458844
0.040074348 -0.068630815 0.032083567
-0.003724575 -0.051121116 0.096797816
0.014762163 0.083417416 -0.00017052144
0.08344245 0.063198805 -0.008853443
-0.092801094 -0.031245947 0.056815539
0.098905563 0.016435802 0.032501213
-0.092124701 -0.054748118 0.0061524063
-0.075507641 -0.035659194 0.028444119
-0.054772139 0.094211936 -0.090064511
0.050088644 -0.014391184 0.096610576
-0.069601297 -0.072555065 0.045881741
-0.019535542 0.091227591 -0.046693176
0.012858391 -0.013267934 -0.070963308
-0.067129612 0.022776425 0.097510614
0.078418255 -0.0035755038 -0.07149753
-0.079202175 -0.073264182 -0.030980021
-0.057086229 -0.089195728 -0.049323931
0.0725317 0.075610459 -0.091580108
0.028136969 -0.078711987 0.0014367551
-0.082147837 -0.025904894 0.0059174895
-0.010347128 -0.093622565 -0.0095163435
0.097658157 -0.015271485 0.037822645
0.039720535 0.098105192 -0.0087792799
-0.097343445 0.048084736 -0.0099096373
0.057076931 0.072392106 -0.048596382
0.020808697 -0.090792 -0.016507275
-0.027222633 0.1027112 -0.078164414
-0.01812458 -0.068882108 0.069296956
-0.076367617 -0.041060269 0.0015345365
-0.016639471 -0.028979659 -0.070854157
-0.010178328 -0.10638762 -0.007565394
-0.08567667 0.044693232 -0.026848994
-0.072977304 0.073678017 -0.091286063
0.14343619 -0.00061392784 -0.031232551
-0.074028969 0.054815292 -0.06931977
0.058004379 0.061492264 0.034889553
0.066323757 0.038591981 0.047739118
-0.027148962 -0.0097575188 -0.070528343
0.01382494 0.093236566 -0.033829689
0.069316387 -0.0057544708 0.068699472
0.029515743 -0.013284147 0.082424454
0.070517063 0.011845827 0.095850348
-0.018258095 -0.099511087 0.037993159
0.026188374 0.0091841817 -0.070835158
0.079716682 -0.013783693 -0.071628332
-0.036849976 0.093215406 0.044259109
0.068543434 -0.071014047 0.041712068
-0.062032461 0.070297897 -0.072506189
0.029519558 0.047910392 0.082267262
-0.087904692 0.0078963041 -0.0028791949
0.11411595 0.0019419193 -0.053019837
-0.084712267 -0.023193717 -0.0054579079
0.072651625 0.036561191 0.045224398
0.087473392 -0.048646033 0.03123457
-0.061579227 -0.085927606 -0.056424484
0.07299757 -0.052420795 -0.089259401
-0.042892218 0.083717644 0.007474266
-0.083889008 0.016580164 0.011653103
-0.034646749 -0.087731302 -0.0027690977
0.017868996 0.10488898 -0.022317484
0.081443071 0.042676508 -0.046656907
-0.049232721 -0.050569832 -0.070782453
0.085501909 -0.031417072 -0.049959749
0.081026077 -0.034918666 0.021650806
0.040409803 0.044208646 -0.070570469
0.082382202 0.026787877 -0.031196184
-0.09000659 -0.014852524 -0.024383448
0.083351612 0.00090306997 -0.0069636106
-0.028074741 0.090444803 -0.0089864433
0.1423223 -0.0013139248 0.021383241
-0.029521465 -0.08918345 -0.0036956072
0.0011663437 -0.080214739 0.034062982
0.016205549 0.10146838 0.025212996
-0.081641436 -0.016232252 0.030760217
-0.038056135 -0.086679399 -0.038730964
0.061843157 -0.013745904 0.076933064
0.0061538219 0.046290278 0.097872689
-0.012718916 0.025978565 0.083345518
-0.01765132 -0.080463111 0.047000926
0.008056879 -0.072414637 -0.071599722
0.023891926 0.06801194 -0.070132464
-0.067732334 0.067676365 0.061845094
0.0086665154 0.10157937 0.03365558
0.10767269 0.0016559958 -0.085723355
0.013972044 0.074143827 0.064043216
-0.024891615 -0.0043810606 0.083132319
0.081007957 -0.0018168092 0.044396218
0.042433977 -0.026589513 0.096609719
-0.062910318 0.087738097 -0.034685321
0.070349693 0.024736941 0.062862784
0.063392401 -0.035710394 0.095308617
0.051290751 0.0411008 0.074501082
0.069352388 -0.032178879 0.055659093
0.05113554 -0.052153885 -0.071790159
-0.06584549 -0.050876141 0.026876032
0.093800306 -0.044604242 -0.027484521
0.048797369 0.090229988 -0.062581331
-0.093719959 -0.046807945 -0.067814171
0.084113836 -0.0076174736 -0.011958778
0.092588425 0.0085877776 -0.091607988
-0.094559669 0.050512314 0.0088097975
-0.063889742 0.07291609 -0.063738644
-0.067525864 0.016570747 0.097500548
-0.054796934 -0.020611525 0.082338803
0.096280098 0.024690568 -0.071498945
0.04820776 -0.064164877 0.026349407
-0.059626579 -0.068898678 -0.084522545
0.032077312 -0.06332463 0.095287837
-0.028847694 0.1037544 -0.024782911
-0.094618797 -0.010384679 0.064621858
0.059912443 -0.018015027 0.096088313
0.016643286 0.10322589 -0.053681016
-0.016563892 0.1059472 -0.090566203
-0.041668653 0.093643188 0.035222538
0.075948715 -0.032852352 -0.0005870983
0.076941013 -0.070116758 -0.0059603229
-0.071917534 0.058089018 -0.077964723
-0.023473263 -0.076293111 0.04362959
-0.075737 -0.04032135 0.042271815
0.09630847 -0.03576684 -0.093239427
-0.062358856 -0.080448449 0.040925521
-0.095653534 -0.0076739192 -0.0082071647
0.070300817 -0.062364578 0.058374535
0.060744524 -0.084150732 -0.083339989
-0.088959694 -0.038001657 -0.033634759
0.03777194 -0.013989747 -0.071217239
0.072422743 -0.071494281 -0.055288613
-0.066087484 0.049662471 0.029864319
0.011194706 0.091155112 0.06711074
0.00069761276 -0.073813677 0.095518515
0.047573328 -0.013027787 -0.071302742
0.0041100979 0.1043604 0.019807175
0.073681831 0.032772541 0.085167006
-0.016855717 0.021820784 0.097841896
-0.017329216 0.072214305 0.079546206
0.089580536 0.04957068 0.018441044
0.032593489 -0.073221922 0.033432018
-0.089945078 0.017795324 0.02484484
0.051050425 0.078760087 -0.021037005
-0.019044876 -0.10453379 -0.029998749
0.0083796978 -0.01682812 0.082635418
-0.051455498 0.064479113 0.086530253
0.093595028 0.0050154924 0.057359155
-0.10459828 0.029157817 -0.0036003292
-0.077532053 0.025129914 0.041991152
0.035718441 -0.083947957 -0.057588309
-0.064328909 0.091648102 -0.088451147
0.089025974 -0.053835273 -0.0049029589
0.071510315 -0.076098084 -0.0052797198
0.064064026 0.048711181 0.020593271
-0.064673662 0.064410925 -0.029038712
0.008245945 0.10610044 0.0010988414
0.069267988 -0.07891047 -0.015326925
0.0029370785 -0.10508704 -0.092739716
0.090159178 0.00012618303 -0.054932699
0.083240986 0.010363817 -0.0098943412
-0.030052423 0.018196106 0.08336331
0.079334497 0.009750247 0.021576613
0.066090107 -0.077902615 0.025293469
0.045154333 0.039672196 0.096349582
0.059733391 0.079670966 0.038742922
0.052062511 -0.015180826 0.081434563
0.018191099 -0.013246715 0.096003629
-0.0068697929 -0.1047107 -0.047372282
-0.080875635 -0.02044332 0.026629388
0.056807995 0.030964613 -0.070885211
-0.07410121 0.04730618 0.036322832
0.023658991 -0.0057313442 0.096036606
-0.10827827 -0.014192581 -0.09088397
0.05007267 0.091608286 0.0070560575
-0.085589409 0.040731072 0.064711928
-0.091959953 -0.062631965 -0.089869127
0.010548353 -0.027154863 0.082502238
0.022478342 0.093203068 0.055692703
-0.013771296 0.073361635 0.077069357
-0.093379021 0.016905308 -0.061876804
-0.0060708523 -0.10557336 0.0035874769
-0.053379536 -0.069008589 -0.0066479445
0.015040159 0.10490471 -0.0025900975
-0.0026779175 0.10537839 -0.051678851
-0.077337027 -0.056633413 -0.014115378
0.030262232 0.10481268 -0.089777887
-0.09347415 0.012881517 -0.047073424
0.13298941 -0.00044775009 0.030067924
0.067208052 -0.06260252 -0.029600523
0.011968374 0.079611897 0.05006057
0.087430477 -0.021539509 0.0053639561
0.086200953 -0.023455143 0.068909079
-0.042162657 0.072349906 0.045768477
0.030608177 0.084506929 -0.076941177
-0.064954519 0.045048714 0.092103072
0.011859179 -0.059805036 0.095527828
0.013685226 0.020692945 0.09644039
0.052631617 -0.087008297 0.025505342
-0.070319414 -0.029180944 0.078827061
0.054507017 -0.089429915 -0.014461018
-0.0096919537 -0.084919691 0.039047915
0.053459167 -0.052268863 0.067903742
-0.0046656132 -0.036063433 -0.071054086
-0.099048138 -0.041344702 0.010407418
-0.087090969 0.041868269 -0.023668274
0.010167837 -0.049566269 0.096683875
0.066378117 0.04428035 0.024070494
-0.028243303 -0.079720318 -0.07132633
-0.079755306 0.015210569 0.041164979
0.076063871 0.049298227 0.066120565
0.03630209 -0.077501833 0.034555137
-0.06422925 0.010700583 -0.069926322
0.0041549206 0.10588723 -0.050091043
-0.10762191 -0.00031805038 0.007057026
-0.041965961 -0.084997654 -0.021574773
0.033768654 -0.098575056 0.0079380274
-0.065701485 0.084274113 0.0090209022
0.0086510181 0.044226587 -0.070257187
-0.093840361 0.01293546 -0.064913839
0.039715052 -0.084287584 -0.026221544
0.087085962 -0.05133158 -0.081161752
0.082031012 -0.054986835 0.04210896
0.017510653 0.092219472 -0.041433111
0.039998531 -0.083370149 -0.042562947
-0.0062966347 -0.031038165 -0.070979908
0.00028753281 0.08898896 0.02914916
0.0021369457 0.041241229 0.083136864
0.019774914 -0.081570983 0.040088486
-0.057699919 -0.075891137 -0.042612478
0.11835027 -0.0057781935 0.047642678
-0.053360224 -0.04885906 -0.070721984
0.025312185 0.054434597 0.096715838
0.029025555 0.088429689 0.0013947263
-0.056790352 0.068750918 -0.069328591
-0.013840437 -0.087693691 -0.082262591
0.0080168247 0.094314039 -0.017845474
-0.068647623 0.042790413 0.054739185
0.024421453 -0.10022849 -0.093399614
-0.10016441 -0.033135295 0.022169873
-0.082168102 -0.039681017 0.028874163
-0.091434002 -0.02429229 -0.061027437
-0.003510952 -0.067388356 0.07446184
0.072099447 0.051674008 0.019535124
-0.00018453598 0.10503936 -0.055648699
-0.092197895 -0.00053924322 -0.069780558
-0.0764153 0.0058897734 0.07660678
0.0458951 -0.092388451 -0.05188185
-0.025805235 -0.057905614 -0.071098194
0.0058398247 -0.091798186 0.0050388649
-0.015159607 0.041692317 -0.070051774
-0.092925072 -0.0039074421 0.069275513
0.021325827 0.10130501 -0.077363521
-0.055513382 0.054658353 0.059629269
-0.091628551 -0.028951049 -0.014194436
0.016445875 -0.072907925 0.077508375
0.078694582 0.064996183 0.023967974
0.044531107 -0.094643354 0.0084834397
-0.049821615 0.089503169 0.036273591
0.075881004 0.052334487 -0.017616764
0.081983805 0.027875781 -0.08204779
-0.019663334 0.082282126 0.010286741
-0.0844419 0.047053099 -0.023080327
-0.068895817 0.062896013 0.012563176
0.084622622 -0.035624743 -0.017260678
-0.035789967 -0.098896682 -0.053694189
0.052871943 0.058326662 0.034607716
0.07165432 0.071045637 -0.069211781
0.080025434 -0.025873959 0.035272051
0.02933836 0.081279814 -0.012146965
0.055057287 0.043565392 0.096422516
-0.074940443 -0.059421957 0.063396819
0.042254686 0.096589386 -0.035753801
0.075666189 0.04355818 -0.081584513
-0.060441732 -0.068099022 -0.037180796
-0.042515993 0.06500566 0.05825711
0.032954693 0.066597402 0.069244049
0.039170504 0.067984521 0.040233482
0.086961031 0.05279541 -0.059243426
-0.079608202 0.039801002 -0.012837268
-0.0046315193 -0.082542598 0.01754725
-0.045942783 -0.089826226 0.04191146
-0.11031318 0.01033169 -0.090234533
0.099526167 0.0036782026 0.03257988
-0.038974524 0.087398648 -0.017122805
-0.092911005 -0.027141571 -0.069760039
0.042375565 0.061482489 -0.070390165
-0.088819742 0.0611341 -0.052604973
-0.1079154 -0.0062512755 -0.041549727
0.01082778 -0.1016807 -0.063228399
-0.0068953037 0.091935217 0.0097056255
-0.07176733 0.05917865 0.015066206
0.063693523 -0.065679252 0.065312713
0.0356071 -0.046224117 0.096221767
0.018940687 -0.087800384 -0.068546221
0.055144787 -0.06776154 -0.030717537
-0.028273582 0.10324717 -0.0023248941
-0.01137042 -0.075926781 0.066529028
0.0085663795 0.094379663 -0.023357719
0.039320946 0.012942076 0.082410812
0.061415434 0.081070006 -0.065473855
0.08143568 0.0072058439 0.0058069155
0.021164894 0.10300058 -0.09117718
-0.10265803 0.031888306 0.011573359
-0.035198212 0.10104918 -0.079028219
0.063286304 0.076088071 0.040135156
-0.0032427311 -0.10246634 -0.062745705
0.071638584 -0.074825168 -0.039937273
-0.086294174 -0.046053231 0.057635229
0.093963385 0.014368832 0.054917574
-0.1050024 -0.027879536 -0.028461419
0.03959322 -0.084030449 -0.036439702
0.0018932819 0.090209126 0.023456253
0.091806889 -0.033981264 -0.094125479
0.070778608 0.026030242 0.05755752
-0.10673952 0.027488053 -0.090038195
-0.036288738 0.011891365 0.083309174
0.018695831 -0.038749874 -0.071315423
-0.012578249 0.092405319 -0.052210554
-0.088040352 0.061178505 0.013708286
0.07408452 0.047745883 -0.039052919
0.057187557 0.035909772 0.071339995
-0.064210176 0.040568709 -0.06958124
0.067869186 0.029333293 0.070262611
-0.050521851 0.055191934 -0.069547132
0.014936447 0.1030547 0.016365901
0.082504511 -0.054756403 -0.073402032
-0.080388069 0.0080495477 0.047051355
0.0094151497 -0.052799165 -0.071386352
0.035452843 0.057085574 0.073197857
0.10775995 0.011748075 -0.088869601
-0.013211012 -0.023111224 0.097249284
-0.081125975 0.013463438 -0.069727823
0.06541872 0.060601532 -0.074927196
0.075773954 -0.031095326 -0.071789593
0.072104931 0.033045292 0.050158072
-0.01698637 -0.037003696 0.096075758
-0.0098729134 0.11271143 -0.085743845
0.075185061 -0.068292379 0.023041479
-0.033200264 0.066237271 0.097380109
-0.041765213 -0.082532704 0.010894269
0.076087713 0.019220948 0.033522524
-0.023547888 -0.072341323 0.061706208
0.039391279 -0.079047263 -0.086685196
-0.083477497 0.029436171 0.078737088
0.011972666 -0.10269123 -0.05610846
-0.10466623 0.0033562779 -0.072040766
0.098272562 -0.028447628 0.015559211
0.09982276 -0.016701162 -0.056801587
0.086499214 -0.0018690228 -0.031005859
-0.10804486 0.012931645 -0.038857102
0.04563117 -0.080220222 -0.034796655
0.049271822 0.015740395 -0.070986927
-0.06417346 -0.083448887 0.021117367
0.020296097 0.07309705 0.059782803
0.083349705 -0.030101657 -0.045041174
0.13874745 -0.010535777 -0.038189277
0.08498168 0.032906771 -0.0030390173
-0.10895705 -0.025292814 -0.089581683
-0.083472252 0.069528341 -0.023069166
0.058477163 0.069140971 0.0092009604
-0.052406549 0.077778161 -0.064942345
0.079517603 -0.0296489 -0.014912479
-0.029616356 0.097304106 -0.091424748
0.060219288 0.01508075 -0.071102455
0.034013271 -0.099590898 -0.015076518
-0.069159031 0.083738208 -0.033867262
-0.10324621 -0.017890453 0.031636242
-0.09030056 0.035251439 -0.040162638
0.014347315 -0.082727253 0.041871469
-0.013629436 -0.080698013 0.086354755
0.041144133 -0.081291616 0.007689245
0.0059843063 0.0057638884 -0.070675537
-0.078760862 0.015136957 0.047902457
0.04750824 0.064954877 0.024955109
-0.098421574 0.044275284 0.0026455
0.080291271 -0.039358854 -0.059574053
0.086048603 0.059315145 -0.026534602
-0.071989536 -0.035844266 0.090784587
0.049621582 0.0013663769 0.095862724
0.089592695 -0.017247021 -0.037688747
0.01841259 0.08354938 0.034786209
0.024992704 -0.088180482 0.066727705
0.066709757 0.060124576 -0.043248788
-0.074640274 0.042982936 0.041131224
0.043139219 0.052293777 0.096770301
0.11090517 -0.0088976622 0.053389154
0.14294934 -0.011178136 -0.0094624609
0.01001358 -0.080318034 0.029369447
-0.092765331 -0.022381306 -0.0010820553
0.058511496 0.07573545 0.054156154
-0.038708448 -0.053798854 0.096095741
-0.096905231 0.01884985 0.054451536
-0.065570831 0.016103506 0.076605648
-0.0014660358 0.065924704 -0.069906637
-0.016924143 0.0060972571 0.097401768
-0.076515913 0.059045374 -0.033423655
0.054078341 -0.051988542 0.059204452
-0.013102055 -0.10457706 -0.046696469
-0.091614723 0.01023674 -0.030935973
0.0033166409 0.040722787 -0.070245117
0.070097446 -0.026471198 0.066972256
0.086092472 -0.0087062716 -0.07163249
0.052929401 0.08973819 -0.051225945
-0.10399318 0.022459447 -0.059233323
-0.096361399 -0.040277541 0.030729681
-0.06840229 0.062269568 -0.037970945
0.081412554 0.055077314 0.041417923
-0.069620132 -0.070921659 0.050624087
-0.0039134026 0.10723281 -0.080213949
-0.070799828 -0.0035090446 0.096993439
-0.1081748 -0.0015773773 -0.00029224902
-0.093588114 0.0076984763 -0.04084833
0.099104166 -0.022804558 -0.052512512
0.015829563 -0.10926813 -0.08645092
0.00028705597 -0.10360283 -0.053713843
-0.030492783 -0.1024068 -0.017559633
-0.021741629 -0.00028562546 0.083130836
-0.025822401 -0.065932393 0.096096441
0.043679714 -0.062614024 0.057980098
0.14339066 -0.0081361532 -0.014210857
-0.046597481 0.024294734 -0.069942981
-0.023735285 -0.079232693 0.046910197
0.077717543 -0.044029236 -0.071958274
-0.046717882 0.08383137 -0.069253549
-0.0059146881 -0.10083383 0.039216146
-0.071558714 -0.029137909 0.061796285
0.019505262 0.07930553 0.020864904
0.052452564 -0.067522466 0.032782771
-0.095514059 -0.017913699 -0.023923501
0.087840796 0.010797262 0.070778236
-0.089201212 0.037582576 -0.021086112
0.08660078 -0.031874001 -0.022059754
-0.052823782 -0.0036412477 -0.070204556
-0.0035321712 -0.0076183081 0.082623966
-0.013308764 -0.086937606 -0.071556985
-0.10038853 0.039329171 0.0076847076
-0.040727854 -0.080168068 -0.033901885
-0.073060513 -0.023925602 0.094731398
0.029325008 -0.083312869 -0.074946612
0.027137518 -0.10660076 -0.087329879
-0.019251108 -0.090732515 -0.071542278
-0.049180746 -0.0813694 -0.023705482
0.029192209 -0.086347759 0.0073196217
-0.017575979 0.01536262 -0.070332319
-0.031167507 -0.086961985 -0.052645653
-0.0038993359 -0.09002775 0.02239009
-0.067980289 0.08267653 -0.053638801
0.042613745 0.079294205 -0.042711958
0.065722227 -0.031661212 0.079751246
0.079167366 0.044928074 -0.054722875
-0.080103636 -0.020700395 0.03129195
-0.084159374 0.0068095922 0.02364374
0.0062229633 0.094819844 -0.034886874
-0.030192852 -0.069417 0.095218614
-0.080912352 -0.022910833 0.046951842
-0.055443287 -0.00088220835 0.082730778
-0.00030994415 0.088684618 -0.069654912
0.084324837 -0.05683744 -0.058429852
-0.067357779 -0.020360589 -0.070254549
-0.017792225 0.088658512 0.02630261
0.14110279 -0.0058698058 0.023171961
0.14747167 -0.0047210455 -0.034947306
-0.081811428 0.013363481 0.030053843
0.067658424 -0.081896782 -0.084793001
0.016147375 -0.01041007 -0.070962697
0.072082281 0.043833077 -0.070887014
-0.10364151 0.029464245 0.0071426108
0.090668201 0.00082141161 -0.071567461
0.013198137 0.10173583 -0.068866417
0.089763641 -0.052007675 -0.0010162741
-0.099334717 -0.029272616 0.033818245
0.10709739 -0.0064712763 -0.08523123
0.0016758442 0.049347997 0.096890032
-0.079828024 0.073529065 -0.025565378
0.084913969 0.031737566 -0.071153343
0.010438919 -0.057332277 0.081232563
-0.004835844 -0.044174254 0.082178988
-0.085939169 -0.052421629 -0.092140213
-0.065042019 -0.0022283196 0.079745397
-0.025041819 0.076509416 0.036090374
-0.095524549 0.05064863 -0.041841641
