# .PCD v0.7 - Point Cloud Data file format
VERSION 0.7
FIELDS x y z normal_x normal_y normal_z
SIZE 4 4 4 4 4 4
TYPE F F F F F F
COUNT 1 1 1 1 1 1
WIDTH 721
HEIGHT 1
VIEWPOINT 0 0 0 1 0 0 0
POINTS 721
DATA ascii
-27.07567 39.705276 -3.9045451 0.35331544 -0.92813551 0.11718628
-23.747597 40.407948 -8.7757778 0.063007474 -0.99733073 0.036897548
-22.019539 40.054581 -11.85524 0.0039764047 -0.99997598 0.0056778574
-20.294104 40.078846 -14.897332 -0.071727127 -0.99466568 -0.074130476
-19.640503 40.24947 -16.941662 -0.071301654 -0.99546087 -0.063037597
-18.456984 40.069836 -17.965498 -0.14212233 -0.98005605 -0.13889357
-25.894686 39.705856 -5.9766378 0.14424977 -0.98507488 0.093912475
-24.890341 39.784233 -8.442688 0.074115939 -0.99682939 -0.028948449
-23.452518 39.839359 -11.590534 0.05728136 -0.99826258 0.013809369
-22.124477 40.099972 -13.89426 -0.17003754 -0.96070063 -0.21941192
-28.17382 39.871109 -4.5906405 -0.070839189 -0.99698967 -0.031519331
-23.838583 40.310127 -12.445241 -0.07478945 -0.98840851 -0.1321182
-21.655415 40.750469 -15.819744 0.060853198 -0.99749643 -0.036024608
-18.994036 40.539379 -20.467184 0.63943881 -0.70369118 0.30973634
-29.886902 39.872059 -1.1446289 -0.082311034 -0.9955197 -0.046533033
-27.722332 39.858017 -6.8832107 -0.043298744 -0.99855423 -0.031852547
-20.902493 40.155834 -17.847548 0.16592661 -0.98342538 0.073095448
-26.351831 40.044159 -10.428789 -0.0041300254 -0.99880791 -0.048639912
-24.518702 40.08123 -13.378824 0.14700527 -0.98640561 0.073439643
-22.761393 40.031315 -16.09306 0.13542309 -0.98570186 0.10026154
-22.246395 40.092701 -19.810102 -0.0034367647 -0.99964362 -0.026472608
-28.829535 39.90033 -8.4651213 -0.027013343 -0.99857241 -0.046079002
-26.023333 40.115807 -14.559433 -0.036531564 -0.99912244 -0.020488705
-30.672634 40.026993 -8.6692667 -0.035597984 -0.99863744 -0.038159225
-24.10495 40.053242 -17.604687 -0.030616904 -0.99920219 -0.025643812
-32.161175 40.044842 -9.1390238 0.094580486 -0.99548912 0.0074720872
-29.630922 40.16151 -11.533585 -0.0074525359 -0.99929249 -0.036862884
-28.664349 40.240967 -14.074284 0.023632873 -0.99970698 0.0052257525
-26.194374 40.201534 -16.647793 -0.029368669 -0.99943221 -0.016515732
-25.879211 40.28294 -19.84861 0.10518087 -0.99050921 0.088479154
-33.915462 39.834484 -8.6834469 0.22295219 -0.97257298 0.066288799
-31.885656 40.026512 -12.040292 0.057076775 -0.99276412 -0.10564904
-30.759682 39.978939 -16.081907 0.24946427 -0.94963157 0.18965104
-30.791428 40.128338 -13.966403 -0.14398678 -0.988976 0.034558062
-32.272213 41.075401 -13.952884 0.0088067753 -0.99871701 0.049868107
-28.120909 40.142033 -17.387299 0.10444272 -0.99148095 0.077828623
-29.303398 39.595184 -19.28977 0.28507361 -0.92341697 0.25697124
-33.089329 40.154713 -13.032377 0.86594719 -0.41239795 0.2829546
-34.253796 38.443443 -13.699179 0.2972914 -0.9103412 0.28791794
-33.720512 39.578819 -11.856924 0.358087 -0.91363847 0.19245373
-32.870583 38.101562 -13.842997 0.57988673 -0.60653478 0.54391819
-33.098915 38.693352 -15.886345 0.59386766 -0.7613647 0.26008669
-32.518414 38.146572 -14.735645 0.72722644 -0.68005049 0.093128666
-31.244488 38.999523 -18.083916 0.5770697 -0.70294136 0.41576919
-33.118992 37.457485 -17.438057 0.68007714 -0.57459408 0.45534253
-1.6783254 40.51609 -25.552143 0.049188163 -0.97812515 0.20211817
-1.4485397 39.792988 -26.09152 0.50714612 -0.85087049 -0.13719426
-3.7734997 40.49361 -25.388195 0.0083843041 -0.94217962 0.3350035
-2.8512797 38.9972 -26.341398 0.21925206 -0.97565424 -0.005232316
-2.1798871 40.536442 -27.532412 0.11917198 -0.87859756 -0.46245477
-2.2171121 41.065094 -29.980486 -0.18547958 -0.97141719 -0.14814128
-8.9169836 40.307949 -20.039171 0.026523143 -0.99963742 -0.0046354276
-4.2280641 40.330265 -27.794121 0.080020241 -0.83783919 -0.54002059
-8.2900915 40.323265 -23.191128 0.046629343 -0.99872005 0.019595815
-4.6656361 39.455456 -26.764807 -0.24379773 -0.9631812 0.11333451
-5.9428697 40.192024 -27.483267 -0.083311938 -0.97953832 -0.18320388
-3.7773185 41.469368 -30.678011 -0.02394894 -0.98367453 -0.17835611
-3.4995246 41.553741 -32.550976 -0.055058163 -0.99707121 -0.05308225
-8.8160295 40.254372 -24.407026 0.24741013 -0.85421705 0.45727614
-5.905973 40.84013 -29.544731 0.028142 -0.93553501 -0.35211107
-4.4594302 41.086357 -29.607008 0.12474158 -0.93790865 -0.32367724
-7.4799709 40.125229 -27.152918 0.071102247 -0.99042213 -0.11835743
-5.2963247 41.298145 -31.164177 0.060389396 -0.97988588 -0.19020183
-11.354508 40.178036 -22.590935 0.092534699 -0.98043865 0.17371629
-10.398374 40.074978 -23.444107 0.3742182 -0.76295698 0.52712184
-10.453064 39.287895 -24.060539 -0.19132575 -0.96219367 -0.19385028
-7.3071904 41.055958 -29.861023 0.084301896 -0.94909328 -0.30350474
-6.8314185 40.379478 -28.621634 -0.020983811 -0.94739795 -0.31936944
-11.389056 39.014015 -23.392899 0.0018619405 -0.99923235 0.039131794
-9.2332134 40.586937 -28.604441 -0.042955745 -0.96754158 -0.24903439
-8.5690651 40.848656 -30.821695 0.10951821 -0.98561591 -0.12871261
-6.1952624 41.685745 -31.312304 0.03212015 -0.94576854 -0.3232494
-12.547714 40.445827 -25.396856 -0.33781984 -0.89903808 -0.27858284
-37.074707 39.741997 -2.5166121 0.098751962 -0.98266226 -0.15691687
-12.670829 39.411388 -23.139494 -0.26709354 -0.95713824 -0.11201498
-11.618361 40.542805 -27.577494 -0.2096989 -0.94586086 -0.24773692
-10.934326 40.893215 -29.590174 -0.097254746 -0.99391752 -0.05166582
-15.586151 41.554661 -24.528345 -0.27306369 -0.94134825 -0.1982415
-12.808511 40.647846 -27.253092 -0.32609913 -0.93210304 -0.15761727
-16.436998 41.517971 -23.298927 -0.2180489 -0.93436968 -0.28179407
-15.131487 41.471779 -26.486507 0.23340939 -0.9706918 0.057249874
-13.598709 41.459339 -28.264137 -0.26097298 -0.91684437 -0.30214161
-17.604523 41.418854 -22.076933 0.074922301 -0.99612141 -0.046137478
-18.14328 40.286995 -23.626028 0.18705833 -0.97826695 0.089458719
-16.800581 40.536785 -24.680292 0.48441955 -0.84794533 0.21523577
-14.740206 41.369781 -28.093643 0.42604914 -0.90412486 -0.032256328
-19.429947 40.261147 -20.798769 0.13019107 -0.99064326 0.040941242
-14.535618 41.813549 -29.370941 0.37106964 -0.74537021 0.55383259
-33.667271 21.755835 30.83555 -0.2129651 -0.36915705 0.90463746
-20.360613 40.091148 -25.90576 0.12519754 -0.95361125 0.27377221
-21.099695 40.135628 -21.765747 0.013595551 -0.9996829 -0.021198776
-17.406317 40.275585 -26.356689 0.26337954 -0.94926584 0.17182992
-21.570507 40.237041 -23.966274 0.058562044 -0.9960112 0.067321502
-23.25618 40.248447 -21.917519 0.0090602329 -0.99979317 0.018210689
-24.925369 39.97366 -22.813587 0.21289432 -0.9623844 0.16879641
-23.726603 40.039715 -26.225533 0.44047126 -0.29769868 0.84697139
-24.539476 39.654369 -24.797474 0.36451843 -0.83577389 0.41061953
-28.618298 38.996563 -21.487783 0.46337914 -0.79430944 0.39287704
-25.888557 39.380077 -24.200272 0.50125033 -0.72342694 0.47476473
-25.188616 38.581844 -25.245398 0.50695616 -0.50379556 0.69941789
-27.425631 37.467495 -24.203808 0.61207902 -0.45629713 0.64587331
-29.961412 37.571983 -21.605909 0.61933666 -0.60077757 0.50545859
-22.554911 39.79895 -25.778738 0.11222672 -0.93935519 0.32406315
-32.255013 15.156796 -20.165852 0.80052882 0.010539547 0.5992015
-29.922386 12.107642 -23.136942 0.76026434 0.010048967 0.64953619
-30.821459 12.960411 -22.020887 0.78910464 0.0051594223 0.61423719
-31.562119 10.178005 -21.068403 0.80578429 0.0072454014 0.59216493
-28.519983 5.6463432 -24.510509 0.72229338 0.025734017 0.69110781
-27.226957 4.8613443 -25.73719 0.68591541 0.019243086 0.72742689
-27.381044 1.6737024 -25.498009 0.67801511 0.025140904 0.73461789
-29.995235 5.9013219 -22.879261 0.75214666 0.027229326 0.65843302
-28.304955 1.0797762 -24.566948 0.71492958 0.023463842 0.69880265
-30.756493 7.1048527 -22.013716 0.78030419 0.019659301 0.62509108
-30.918032 2.4358768 -21.654959 0.77977443 0.022484286 0.6256566
-25.921412 -2.1312077 -26.673861 0.65241659 0.022654066 0.75752193
-32.168884 8.213479 -20.231817 0.825683 0.019722268 0.56378955
-29.037958 0.065707289 -23.747578 0.74644005 0.026966933 0.66490597
-29.590202 2.7676978 -23.177423 0.75005674 0.024186693 0.66093111
-32.231487 3.6096089 -19.910969 0.82137918 0.021479912 0.56997788
-28.006613 -3.8059311 -24.699057 0.71739119 0.028483925 0.69608808
-31.647032 0.24796304 -20.603573 0.82989246 0.02840687 0.55719978
-30.668362 -2.3299921 -21.786484 0.7699002 0.027407376 0.63757551
-26.796139 -4.1363101 -25.855442 0.68125588 0.023870183 0.73165613
-30.224979 -5.1130409 -22.139469 0.76405066 0.027990768 0.64454877
-29.069687 -5.2084475 -23.457077 0.74192482 0.025221037 0.67000848
-27.811628 -8.5906668 -24.690386 0.71607584 0.026623895 0.69751453
-26.673155 -7.4637456 -25.849411 0.67694497 0.028990977 0.73546249
-31.719545 -3.9150796 -20.331179 0.81973243 0.029168973 0.57200342
-32.388992 -5.6355357 -19.187004 0.83580571 0.02484278 0.54846299
-24.936064 -15.545261 -27.125982 0.64519858 0.029211491 0.76345623
-26.814562 -11.6431 -25.565073 0.69432104 0.023273414 0.71928895
-23.200188 -17.087334 -28.450441 0.60765058 0.022754433 0.79387844
-29.110315 -9.986599 -23.304157 0.74318725 0.02415357 0.66864741
-26.403772 -14.62858 -25.867287 0.68671638 0.026002675 0.72646016
-29.825556 -13.175995 -22.302195 0.76677573 0.026032101 0.64138705
-27.858135 -16.099621 -24.399237 0.72079957 0.024970863 0.69269359
-30.739021 -8.7811127 -21.373102 0.79706103 0.025436211 0.60336292
-26.811802 -18.744671 -25.312325 0.69347763 0.026632495 0.71998572
-28.547045 -13.516987 -23.758659 0.72744107 0.025193207 0.68570751
-26.166826 -20.610846 -25.887091 0.67261702 0.021134846 0.73968899
-32.849209 -11.520718 -18.311949 0.83986306 0.023093985 0.54230678
-24.815655 -19.551523 -27.064407 0.64145136 0.025354065 0.76674467
-29.87084 -16.458078 -22.142794 0.75952053 0.02319508 0.65006977
-32.433041 -15.606808 -18.805376 0.84723127 0.022132799 0.53076309
-28.7096 -18.506489 -23.404247 0.73983777 0.026041754 0.67228109
-25.525585 -24.230745 -26.325161 0.67016727 0.020371821 0.74193043
-30.967003 -16.219669 -20.79817 0.80073804 0.022188867 0.59860355
-28.860868 -22.047478 -23.105036 0.73273116 0.024917534 0.68006188
-27.120422 -23.879833 -24.844955 0.70820183 0.023181168 0.70562941
-25.892698 -30.445629 -25.830446 0.66852725 0.017357577 0.74348503
-24.792532 -27.492737 -26.932394 0.64262128 0.019377042 0.76593888
-28.955658 -25.244478 -22.867266 0.74768662 0.021144016 0.663715
-32.307182 -20.034512 -18.75456 0.82990098 0.025047418 0.55734801
-30.524754 -22.710558 -21.124729 0.78408283 0.024678921 0.62016541
-28.591049 -28.696884 -23.187611 0.74310452 0.013307394 0.669043
-33.056305 -22.958157 -17.416685 0.86269456 0.022459904 0.50522637
-31.710175 -25.159286 -19.418625 0.82719767 0.021240572 0.56150949
-30.600981 -26.906248 -20.83453 0.7854501 0.022175297 0.61852771
-37.005711 39.970146 3.9218256 0.32005426 -0.94738978 0.0042248778
-29.676605 40.484901 19.275824 -0.069043599 -0.98883832 0.13202959
-31.737244 40.616985 19.511761 -0.082059115 -0.99031186 0.11202089
-30.881834 40.350155 17.779484 -0.08502461 -0.98752517 0.1325323
-30.853287 40.123074 16.340054 -0.08385291 -0.9923178 0.090961404
-32.385738 40.293053 15.595267 -0.089551523 -0.98598152 0.14078723
-31.274935 39.791737 13.510181 0.043466393 -0.99449176 0.09537714
-32.589146 39.834225 13.845124 -0.24500656 -0.96311063 0.11130901
-31.530273 39.295029 11.364737 -0.05619416 -0.99644202 0.062813938
-32.910595 40.189663 10.816484 -0.52367562 -0.84925091 -0.067356393
-31.04475 39.251083 9.1903486 0.17717664 -0.98275179 0.052986134
-33.063419 40.009281 4.7617769 0.024066605 -0.99969149 0.0061395527
-30.419468 40.008793 2.2689269 -0.040635236 -0.99767482 0.054715276
-34.301991 39.964226 2.2806044 0.054483484 -0.99830788 0.020322856
-31.858164 39.863964 1.1560534 -0.043216608 -0.99896306 0.014320248
-33.72496 40.002117 0.29093528 0.039344382 -0.99912983 -0.013837767
-31.849152 39.991814 -2.9296043 -0.023717692 -0.99965918 -0.010903097
-34.231709 39.977505 -3.9534674 0.12325361 -0.99205053 0.025382187
-36.199409 39.68256 -0.79452389 0.13642918 -0.99041456 0.021589814
-31.402914 40.009399 -5.8997402 -0.0038670057 -0.99999017 -0.002183419
-36.396282 39.42477 -3.523632 -0.015451708 -0.99858093 0.050965283
-36.095158 39.357403 -6.0775032 0.27048984 -0.95375484 0.13109931
-37.884533 37.899063 -5.3315787 0.91648543 -0.28892854 0.27672151
-35.883778 38.919857 -9.3457022 0.58240354 -0.79259074 0.18057153
-35.344074 38.859859 -11.215428 0.61620712 -0.74384111 0.25882265
-38.30862 36.140827 -6.4573669 0.92247331 -0.3339617 0.19368166
-36.97036 38.277264 -7.3340607 0.79176044 -0.54199541 0.28170261
-35.347729 37.557201 -13.317035 0.73951685 -0.57009661 0.35791701
-36.930515 37.425789 -9.4601707 0.81766015 -0.5167768 0.25371927
-36.191963 39.636147 1.8266195 0.021754675 -0.9994539 0.024870321
-18.193048 -14.642159 36.492401 0.47185832 0.00078298489 -0.88167399
-20.243803 -16.143677 35.431606 0.52077079 0.018035978 -0.85350597
-19.625093 -19.031399 35.689518 0.5307864 0.014427043 -0.84738284
-22.39315 -14.2185 34.085564 0.56520796 0.028579483 -0.82445329
-21.347084 -13.144199 34.80574 0.52072442 0.0047322134 -0.85371166
-22.37006 -16.124044 34.031155 0.55009693 0.0040666731 -0.83509094
-24.290142 -15.726779 32.702629 0.5981093 0.0042005009 -0.80140346
-24.15624 -13.154189 32.811123 0.60343122 0.017494066 -0.79722309
-26.168104 -12.683397 31.210741 0.65795916 0.015589727 -0.75289214
-24.328148 -18.573467 32.623665 0.64163184 0.013855471 -0.76688761
-25.46723 -15.747478 31.761595 0.66648549 0.029502034 -0.74493408
-27.648209 -10.249607 29.852177 0.70165539 0.018049272 -0.71228784
-27.180765 -14.952712 30.147072 0.68443328 0.016724393 -0.72888356
-28.028502 -16.553761 29.335873 0.71359432 0.017801592 -0.70033294
-28.723886 -13.348926 28.70155 0.73769653 0.01772188 -0.67489988
-29.725437 -17.305784 27.478693 0.76991904 0.024507532 -0.63767076
-31.151581 -13.559183 25.798227 0.78949231 0.022702893 -0.61334038
-32.940563 -15.450461 23.18862 0.84300613 0.025414089 -0.53730321
-33.930714 -9.8247404 21.69479 0.86800301 0.039935019 -0.49495044
-33.799042 -14.100224 21.626348 0.87364674 0.021858228 -0.48606956
-34.762455 -8.340456 20.29715 0.89349502 0.033092767 -0.44785222
-34.919937 -12.588806 19.707449 0.89648527 0.025605587 -0.44233304
-34.831955 -15.515106 19.737694 0.89229089 0.023727164 -0.45083711
-35.71246 -10.18954 18.054489 0.91237211 0.033949938 -0.40795174
-36.017353 -12.989963 17.255371 0.92070436 0.025182854 -0.38944745
-36.956711 -6.6123242 15.279426 0.94542152 0.028490439 -0.32460204
-36.778805 -10.309226 15.572571 0.94159251 0.026005212 -0.33574894
-37.405037 -10.112501 13.563748 0.96244526 0.025100308 -0.27031314
-37.263039 -13.54925 13.723195 0.95924562 0.028597655 -0.2811226
-37.977165 -9.550889 11.354782 0.97133738 0.032034587 -0.23553663
-38.242992 -7.3686047 10.649014 0.98008054 0.033097744 -0.19582331
-38.267612 -11.128728 9.7832184 0.9819414 0.023263276 -0.18774925
-37.653511 -16.008528 12.09951 0.96844608 0.030892769 -0.24730118
-37.793037 -12.885654 11.76561 0.9731704 0.023207281 -0.22891222
-38.303917 -14.110584 9.2843323 0.98378569 0.028108278 -0.17713174
-38.546814 -9.1611242 8.0684443 0.9888345 0.028256571 -0.14631455
-38.500404 -11.897531 8.5165434 0.98901045 0.014992053 -0.14708339
-38.738274 -10.275535 6.7822275 0.99488783 0.015698047 -0.099758111
-38.850571 -11.719134 5.3335509 0.9979853 0.020611925 -0.060003761
-38.64447 -13.710565 6.9195151 0.99462444 0.026423151 -0.10012027
-38.8396 -14.66348 3.9897993 0.99908501 0.025758509 -0.034139272
-38.686974 -17.269608 5.2710791 0.99697196 0.026448783 -0.073125795
-38.939442 -11.74135 2.616518 0.99979329 0.020192768 -0.002380644
-38.861591 -13.046229 0.88632023 0.99920386 0.019797044 0.034637954
-38.827564 -16.588026 1.5162667 0.99902767 0.022825211 0.037721217
-38.760185 -12.576213 -0.44207597 0.99571687 0.016151916 0.091034003
-38.553036 -16.837326 -1.8551958 0.99382246 0.012478064 0.11027789
-38.635593 -18.932955 -1.1745747 0.99513125 0.024719812 0.095407851
-38.351166 -15.905752 -3.250504 0.98976898 0.017664734 0.14158151
-38.305473 -13.181603 -4.0419712 0.98474741 0.01681274 0.17317581
-38.234715 -16.521719 -4.2225404 0.98497105 0.01936724 0.1716305
-38.083912 -18.613115 -4.6560526 0.98242038 0.014131987 0.18614659
-37.87941 -15.424408 -5.9200845 0.97241801 0.014095224 0.23281881
-38.273071 -20.431307 -3.6899064 0.98805255 0.022440782 0.15247528
-37.002956 -18.050035 -8.8453217 0.95184612 0.017170671 0.30609497
-37.810268 -22.677988 -5.7199097 0.97849882 0.025385875 0.20468426
-37.483685 -18.634628 -7.238524 0.9610548 0.013391756 0.27603307
-37.753674 -20.329042 -6.2286739 0.97137552 0.015151829 0.23706563
-37.236805 -21.916071 -7.9502678 0.95691425 0.013091552 0.29007566
-36.481403 -19.255705 -10.250193 0.93910348 0.017055266 0.343211
-36.660267 -21.682621 -9.7842722 0.94564897 0.012947268 0.32493168
-37.333084 -23.967894 -7.5063953 0.96026111 0.017618209 0.27854642
-35.866543 -20.938034 -11.92466 0.92854595 0.014763881 0.37092388
-36.344883 -25.091974 -10.492041 0.9363538 0.015170109 0.35072982
-36.876114 -26.858938 -8.9872522 0.94979537 0.011079678 0.31267551
-35.145161 -22.933245 -13.480877 0.90147507 0.020679252 0.43233675
-35.335613 -26.35391 -12.898877 0.91341877 0.015928414 0.40670925
-34.374447 -22.80562 -14.971744 0.8829084 0.020526012 0.46909645
-34.016212 -27.177799 -15.546196 0.88360465 0.012513942 0.46806654
-33.229591 -27.259169 -16.919958 0.85376 0.016091488 0.52041811
-33.32431 -31.723957 -16.67465 0.86409175 0.0071706502 0.50328326
-29.956133 -29.437471 -21.57839 0.77712697 0.0084895855 0.62928653
-31.8487 -29.805368 -19.097183 0.8263368 0.010238823 0.56308311
5.3918128 42.41325 4.9653034 -0.013484683 0.9982335 -0.057862338
9.6177645 42.792377 -6.5444407 0.019646864 0.99979091 -0.0056588068
-3.2658248 42.846157 -14.569953 -0.017739667 0.99872863 0.047184333
-1.9891824 42.932579 -15.65112 0.016626092 0.99983168 -0.0077647669
13.602584 43.020851 -8.4848528 -0.039159864 0.99776345 0.054171801
2.8783722 42.728233 6.20328 -0.091250859 0.94058901 -0.32705557
6.0991263 42.417309 3.369889 0.026660347 0.99938124 0.022942252
11.293571 42.800358 -7.3359838 -0.021317642 0.99806952 0.058334667
8.4936638 42.662354 -2.6379094 -0.085652769 0.99415094 -0.065783389
3.376761 42.445969 3.8986712 0.054651514 0.99535871 0.079209737
1.2773222 42.7682 7.1340871 -0.083504893 0.958049 -0.2741698
10.102727 42.554047 -7.5938506 0.0014939577 0.99999744 -0.0017280165
5.9713526 42.811794 -0.20501664 -0.018868618 0.9962737 0.084158838
-0.58021384 42.868885 7.7357144 0.0075707976 0.98970288 -0.14293605
7.8279243 41.973305 -4.5384455 -0.47336259 0.85625929 0.20675553
6.9875712 42.435772 -2.57581 0.074833363 0.99076128 0.11310182
2.4750755 42.403179 5.3809695 0.04690535 0.99694073 -0.062523134
1.510494 42.777016 5.206285 0.11806992 0.98512393 0.12486142
5.1311712 42.276299 -1.1971009 0.01497604 0.99802577 -0.060994599
3.8350534 42.673161 1.7918611 0.11052732 0.99125397 0.072106421
7.4231534 42.714314 -5.304009 -0.014507813 0.99632937 0.084363975
1.8038913 42.691589 3.7057512 0.13099001 0.98578739 0.10518961
0.38415545 42.518463 6.4141846 0.077199459 0.9969151 -0.014163087
4.8972993 42.630684 -2.9002001 0.015375507 0.99807119 0.060145266
3.2505777 42.990295 0.91416955 0.0321583 0.98517859 -0.16849041
9.9697399 42.957558 -10.885188 0.00093367143 0.99970102 -0.024433276
10.258782 42.842819 -9.5444632 -0.00071960059 0.9948318 0.10153411
-1.4833596 42.654442 7.4984336 -0.14083159 0.98979384 0.021786032
-1.0270963 42.753998 5.9247832 0.030607339 0.99567306 0.087740883
1.4916178 43.215851 1.6195896 0.008550589 0.99493539 -0.10015261
6.9701838 42.932293 -9.645299 -0.051574923 0.99856722 0.014261508
-0.088638671 43.16433 2.35797 0.045010664 0.99777812 0.049119655
7.9972882 42.603374 -11.345499 0.016614858 0.99932712 0.03269903
-2.3886731 42.921772 4.3181596 -0.013967784 0.99448627 0.10393188
4.3731775 42.618412 -5.4315672 -0.0043589231 0.99995202 0.0087765884
1.5827682 42.73193 -1.7009606 0.13880052 0.99011147 -0.020340512
3.3062468 42.569733 -1.7816356 0.081455164 0.99664062 -0.0085077565
0.44312826 42.973389 -0.12281661 0.10492454 0.989088 0.10342094
-0.49294916 42.565208 1.5707749 0.082132317 0.9954707 -0.047877897
-1.544596 43.100925 2.4594519 0.13481182 0.98079485 -0.14095171
7.9486823 43.118961 -15.119036 -0.01264836 0.99945062 0.030635487
5.950736 42.872288 -9.4654884 -0.024669295 0.99703687 0.072861671
4.9652309 42.487637 -9.9746857 -0.0066479049 0.99210775 0.125212
-1.8223572 42.972233 0.20453373 0.10915017 0.99068624 0.081405848
9.9844131 43.152821 -15.641726 -0.016188784 0.99735141 0.070909068
7.4503059 42.918308 -12.943001 0.01967117 0.99782151 0.062969975
6.3046112 42.913021 -13.611167 -0.050492119 0.99872172 0.0023403384
3.9159892 42.616177 -6.8534288 -0.0005615296 0.99979806 0.020086277
-0.77099717 43.107483 -2.3080599 0.079761676 0.99667168 0.016843548
8.6252003 42.939281 -17.582073 -0.030131664 0.9967584 0.074597649
0.89333707 42.674793 -3.8038931 0.031853624 0.99949253 -0.00033372795
-0.20523497 42.698673 -3.6412182 0.021061314 0.9997679 -0.0045310869
5.1097159 43.071232 -11.542193 -0.0019007672 0.99951839 0.030976202
3.3980966 43.045002 -10.969504 0.015885022 0.99819839 0.057859074
4.5258451 42.820332 -12.867745 -0.06233526 0.99797595 0.012587449
3.0194085 42.598885 -11.779232 0.0073617669 0.99896604 -0.044862192
5.4399605 42.852417 -16.377317 0.087964624 0.97319007 0.21251675
6.2836657 43.001945 -15.80305 -0.067850955 0.99703377 -0.03633051
6.9088211 43.259636 -18.125591 -0.019896612 0.99285501 0.11765634
4.5020261 42.867432 -14.518993 -0.03047643 0.99953377 0.0018728505
1.5760167 42.820515 -10.332235 0.019194467 0.99832803 0.054522209
0.15164934 42.681789 -5.707716 0.012473792 0.99990404 0.0060274201
5.4110107 42.846706 -18.280739 -0.03510366 0.99937183 -0.0048708827
4.2683096 43.453121 -16.620323 -0.014975426 0.99936962 0.032187387
2.0506551 42.884426 -13.598036 0.040197976 0.99870145 0.031298444
-2.3738811 42.666798 -4.4706316 0.005197736 0.99990571 0.012711467
-5.2941589 42.924313 -2.1261077 -0.1048332 0.99407548 0.028705865
5.8297215 43.389622 -17.321196 0.0083891209 0.99379641 -0.11089744
1.0003705 43.065842 -11.826339 0.023100188 0.99972951 0.0026897676
-2.1244891 42.695168 -6.8042331 0.022974912 0.99846667 0.050362919
3.3375607 42.827206 -15.341434 0.10483485 0.96923929 0.22267614
-2.3374588 42.988258 -9.9669313 0.014369964 0.99964315 0.022521803
2.7079456 42.745071 -16.88143 -0.059052553 0.99497831 -0.080814816
2.5668354 43.340771 -15.814356 -0.10725702 0.99263149 -0.056380291
4.2209549 42.872448 -17.706053 -0.016721252 0.99985719 0.0024558629
-4.1525979 42.853188 -8.2568169 0.0060588587 0.99926895 0.037747551
-0.018716889 43.387939 -14.844011 0.054177295 0.99851781 -0.0051974598
0.18740821 42.835102 -14.077072 0.023503693 0.99328595 0.113272
1.8214904 43.329739 -18.077253 0.03777317 0.98787248 0.15060273
-1.4003053 42.871555 -11.44788 -0.043521512 0.99866503 -0.02782136
-6.065136 42.957737 -7.1869516 -0.027715851 0.9995625 -0.010327667
-1.4524398 42.744053 -13.15961 -0.028942483 0.99873483 0.041122507
-3.7010942 42.69915 -12.52382 -0.0017176506 0.99770623 0.067670241
-3.6804321 42.74828 -10.746635 -0.047033317 0.99415761 -0.097151831
0.2429443 42.822212 -15.974536 -0.039074935 0.99877089 -0.030492067
0.12534064 43.221073 -17.623533 -0.16380706 0.98424792 -0.066506274
-4.5625372 42.919701 -9.779561 -0.095127329 0.99467844 -0.039567094
-5.1858273 42.655151 -11.747154 0.033570085 0.99854672 0.042160388
-6.1187177 42.590668 -10.365306 0.0097256163 0.99985576 0.013923847
-6.9768271 43.020596 -12.968627 0.017497193 0.99972534 0.015589519
-5.6716266 42.987961 -13.979353 -0.0015654556 0.9999817 -0.0058477465
-7.4805803 42.974323 -11.663739 0.070814997 0.99664325 0.041077945
-1.0933121 43.152885 -14.200532 -0.055608798 0.99694318 0.054882083
2.011621 42.895676 -19.243633 -0.004009136 0.99896419 0.045326911
8.1412144 42.687901 -8.6441288 0.048142087 0.9972648 0.056082252
7.0688462 42.78735 -7.695282 -0.061062559 0.99809891 -0.0083633056
5.6644907 42.707649 -6.8407774 -0.021154815 0.99947453 -0.02455481
5.5993972 42.380245 -8.0044937 -0.040966488 0.9972899 0.061111566
3.1758065 42.680344 -8.547698 0.025564624 0.99881452 0.041425452
1.6120342 43.001465 -15.090933 0.059476286 0.99037588 0.12497254
2.2420936 42.606216 -0.54054517 0.018580057 0.99933094 -0.031503737
0.94550055 42.617603 0.99324739 -0.083496548 0.97568601 -0.20264532
-17.541636 11.286901 41.56485 -0.32599559 0.074147388 0.94245899
-17.356382 23.808018 41.669914 -0.2694338 0.0729618 0.96025097
-17.929426 29.258736 41.425526 -0.35162044 -0.041551042 0.93522012
21.346668 -30.081879 -28.552521 -0.56959546 0.0010471967 0.82192451
19.241716 -30.734421 -29.938457 -0.51777309 0.023956005 0.85518247
18.775684 -29.242893 -30.153156 -0.48641518 -0.022652086 0.87343413
13.892586 -31.411812 -32.600658 -0.35849676 0.016684847 0.93338192
11.147799 -28.885662 -33.575405 -0.31117824 0.006388654 0.95033014
9.0449829 -29.36084 -34.171532 -0.26846933 0.034108657 0.96268415
3.6039174 -30.657181 -35.124439 -0.11280664 0.025367472 0.99329305
2.2121418 -28.637039 -35.242004 -0.087834738 0.022766514 0.99587488
1.318922 -26.641546 -35.383034 -0.044889737 0.035950728 0.99834484
-1.9042021 -29.480576 -35.306904 0.038739961 0.02238992 0.99899846
-5.3543377 -28.523829 -35.052933 0.11806931 0.033408836 0.9924432
-5.4313235 -31.836802 -35.044373 0.11351724 0.018289024 0.99336767
-12.495433 -29.872459 -33.512207 0.29250225 0.035540301 0.9556042
-17.032202 -29.221432 -31.796522 0.43436411 0.021128288 0.90048957
-37.896206 39.137199 -2.3844802 0.87390536 -0.4854975 -0.024117863
-37.837612 40.20393 -2.9782324 0.53734344 -0.84114248 -0.061167527
-37.528809 39.947952 -4.1332526 0.31821811 -0.91568238 0.24548551
-37.234497 39.312599 -5.879189 0.77799374 -0.52816761 0.34024218
-37.91386 38.577568 -3.5827749 0.92574823 -0.3428022 0.15961459
-33.136158 12.408451 -18.794901 0.84010661 0.0075378041 0.54236889
-33.346943 9.6953335 -18.405066 0.83153254 0.014411559 0.55528903
-34.395233 39.940029 6.6569748 -0.034789484 -0.99766153 0.058831755
-35.872437 39.834763 4.5269594 -0.019402528 -0.99670994 0.078695081
14.035429 21.744877 -33.973549 -0.38103855 0.01582323 0.92442375
13.619863 23.091722 -34.035912 -0.37953329 -0.013207986 0.92508376
14.608308 20.528858 -33.616337 -0.3801111 -0.024575153 0.92461431
11.40708 17.710768 -34.867149 -0.35500094 0.014306244 0.93475652
13.22705 18.75798 -34.329056 -0.35787359 -0.023280876 0.93347979
9.825635 17.008005 -35.594059 -0.13076864 -0.008412228 0.99137723
10.325936 21.729877 -35.496044 -0.18927342 0.019635765 0.98172814
-1.0178698 31.343729 -36.592491 0.08027225 0.015442553 0.99665332
-2.0813417 28.148481 -36.046322 0.10669952 0.044780191 0.99328238
-4.6950965 30.704845 -36.315964 0.16444631 0.11248522 0.97995126
-5.336432 31.284067 -36.189362 0.14689116 0.11264935 0.98271722
-4.0962105 27.084818 -35.756809 0.19414063 0.14161855 0.97069752
-5.8508153 26.112036 -34.863029 0.1326707 -0.31087068 0.94114715
-8.1697903 27.978701 -35.806953 -0.020762602 0.040330149 0.99897063
-6.3711658 31.379654 -36.065338 0.1016373 0.021784415 0.99458301
-9.9876652 37.73101 -31.339041 -0.38607913 -0.88665169 0.25454205
2.0946574 8.3810959 -36.521896 -0.070765324 0.034363221 0.99690086
0.3596417 7.9534221 -36.488487 -0.01252894 0.058539912 0.99820644
1.9260323 -14.550563 -35.777622 -0.077728763 0.034920849 0.99636281
-11.871704 41.056175 -29.585917 -0.41472346 -0.86718351 0.27567571
-12.695647 39.707153 -29.914297 0.08329729 -0.50572759 0.85866243
-13.244325 41.989834 -29.61413 0.026888376 -0.41269109 0.91047412
-13.928397 39.091122 -29.582329 0.21001993 -0.40018579 0.89204419
-15.739182 39.47794 -29.433161 0.31131995 -0.78794497 0.53124624
-15.424667 41.137672 -29.043703 0.63804263 -0.54127038 0.54765683
-22.460985 39.139378 -25.979465 0.3852084 -0.75093204 0.53639126
-3.9549792 39.115723 -26.597153 -0.2685267 -0.95630336 0.11566043
-5.7629852 40.339832 -25.096182 -0.026111731 -0.99341863 0.11152391
-7.7937117 39.869701 -25.063976 0.2815336 -0.95922959 0.024846427
-9.7448292 39.721523 -25.876867 -0.043460891 -0.94873464 -0.31307122
-9.111701 39.011467 -24.803196 0.34043354 -0.8847121 0.31841725
-6.5918612 40.374115 -24.251757 0.062078871 -0.99705213 0.045091096
-27.198719 40.207569 -2.0757279 0.13644268 -0.98967576 0.0438798
-14.443525 39.913448 -22.240101 -0.3055352 -0.91259378 -0.27169985
-16.579275 39.990726 -20.037479 -0.3289713 -0.92434764 -0.19328557
-18.650961 41.035423 -20.140402 -0.28907263 -0.91678488 -0.27557665
-20.067217 40.833961 -18.774832 0.24268951 -0.96188509 -0.12601118
-19.360447 41.123695 -19.144304 -0.031555425 -0.98355514 -0.17783003
-21.330391 40.628204 -16.679405 -0.029267598 -0.98871195 0.14694248
-31.795544 39.86544 -15.282019 0.63671619 -0.66377223 0.392427
2.4185596 47.296734 -34.413532 0.039902054 0.90463018 -0.42432541
-38.00132 47.291492 4.2076159 -0.55217373 0.83191496 -0.054968994
-13.991307 46.034969 33.337837 0.27115196 0.74993902 -0.60338044
11.897386 45.03944 -33.882576 0.34234416 0.55280489 -0.7597416
-0.98733163 46.4128 -35.441219 -0.012406604 0.61177635 -0.79093349
-32.848553 46.971031 -11.674445 0.48021391 0.84504455 0.2351473
8.2189665 42.479008 4.059721 -0.039154448 0.99889958 -0.025819048
11.076035 42.667992 9.9125233 -0.024310399 0.99891806 -0.039645407
10.407505 42.570496 4.8563695 -0.013528791 0.99988353 -0.0070721516
-37.064857 47.52998 6.0286536 0.064348221 0.99789381 0.0082047023
16.533489 43.131199 -6.9939532 -0.16758929 0.98344505 -0.06891802
16.612272 42.967705 -8.3354301 -0.063149393 0.99788439 0.015451175
11.788186 42.76413 -5.5357628 0.012071232 0.99959797 -0.025655985
12.190688 42.483215 -6.4388585 -0.027154559 0.99600595 -0.085057363
10.615174 42.875412 -3.9713604 0.0044965856 0.99559855 0.093612507
8.9525318 42.63826 -4.7175307 -0.1119109 0.99090379 0.074737161
-2.4554102 47.239204 -34.460892 -0.030008003 0.81542027 -0.57809114
16.138716 42.908886 -10.059167 -0.02824777 0.99729079 0.067919873
-8.5811234 42.706543 -0.92762917 0.03946374 0.99913085 0.013421065
-5.7340574 47.3685 -34.157993 -0.046311665 0.97489995 -0.21777362
-8.1297388 47.37262 -33.370785 -0.069647901 0.9598462 -0.27174324
11.116075 43.460976 -21.038668 -0.1336848 0.9909429 0.012672263
-14.223653 46.78714 -32.15897 -0.2108078 0.85464799 -0.47448599
-18.797562 47.276318 -27.899862 0.19453087 0.93003774 0.31174925
1.70344 47.148788 37.034782 -0.034822416 0.86714798 -0.49683172
-1.4717628 45.647224 35.476334 -0.035886876 0.76430053 -0.64386082
34.180458 46.593296 14.003792 0.64400721 0.73886108 0.19834025
-3.7112896 44.883007 34.641472 0.048224304 0.7652666 -0.64190459
35.176388 47.135967 7.7633581 0.54738742 0.83035612 0.10428696
38.233341 44.03318 0.67744553 0.70360315 0.71010977 -0.026206104
35.928532 46.807159 -0.003681056 0.65246809 0.75593609 -0.053348701
-14.267451 44.650536 31.559887 0.23640396 0.84403133 -0.48137748
-17.223387 45.677658 31.353165 0.31959397 0.78003848 -0.53795874
35.931648 46.580513 -2.5017872 0.66136748 0.74398983 -0.095247932
-18.582973 44.497326 28.622015 0.27405071 0.87315077 -0.40311766
-20.252039 45.796192 29.356422 0.38448364 0.77197438 -0.50618964
-1.0426128 42.680588 14.4821 -0.00055695622 0.99997979 -0.0063353693
-3.8743551 42.72208 15.182867 0.026689738 0.99782956 -0.060198061
33.775524 47.392986 -6.3137059 -0.048223827 0.99855983 0.023510229
-1.2111689 42.653145 13.129684 -0.050489303 0.9811129 -0.18673007
-22.980671 46.511894 28.284304 0.35968298 0.82202929 -0.44147021
-23.31843 44.546867 24.898964 0.33910158 0.86835903 -0.36188763
-24.582966 46.078388 26.127443 0.42168996 0.79523033 -0.43564472
-25.189642 45.042282 23.989717 0.43970406 0.7995277 -0.40916491
-27.467955 45.680553 22.444118 0.4658142 0.79337507 -0.39188409
-28.659231 46.717869 23.01 0.097564943 0.91390437 -0.39403015
31.293446 46.565788 -16.46073 0.57589066 0.75112069 -0.32275015
-30.288404 45.593208 19.540375 0.25613731 0.95493567 -0.14997192
28.918104 46.836735 -19.652819 0.47107866 0.8132863 -0.34154111
-30.263592 44.104115 11.323949 0.24931151 0.96562344 -0.07358779
26.575672 46.750156 -22.825197 0.4709847 0.78590435 -0.4006592
-31.244253 44.159992 8.8071985 0.42729896 0.89780998 -0.10654922
22.091043 47.237568 -26.17602 0.23575883 0.93079746 -0.27934545
-9.3860731 42.945721 -11.335302 0.022746123 0.9997257 0.0055747288
-33.344154 45.03846 6.2016401 0.61823577 0.78218955 -0.077226587
-13.021844 43.006111 -10.775096 0.033523563 0.99938697 0.010095498
-35.496353 47.022511 6.5585408 0.5154351 0.85569179 -0.04602306
-12.243757 43.025547 -13.011831 0.041597392 0.99869537 0.029616874
-33.058681 44.883785 -2.1267827 0.57886112 0.81226593 0.071719818
-19.584692 16.13464 40.683681 -0.43738532 0.011239449 0.89920396
11.211772 46.133556 -33.693058 0.27345043 0.57658857 -0.76991588
-50.404388 -29.073437 35.876251 0.55480498 0.77550811 -0.30129486
-51.545052 -29.507088 33.185604 0.52615577 0.78912258 -0.31693143
-50.165588 -30.365803 33.044159 0.46158135 0.83957607 -0.28645191
-52.381454 -28.187618 34.788902 0.60233986 0.71877348 -0.34720498
-53.587704 -26.47563 35.63443 0.68004757 0.61852264 -0.39365596
-55.001972 -24.098518 36.721352 0.7286585 0.54642761 -0.41288462
-22.029873 47.290627 -25.697701 0.26354855 0.89910561 0.34950128
8.125164 42.699692 5.8033366 0.041753676 0.99849373 -0.035593037
-41.879505 32.701668 30.206347 0.13554399 0.98360801 0.11892472
-43.285915 33.068287 27.501749 0.040909175 0.99910492 0.010759696
-45.382954 32.809734 24.750462 -0.11512084 0.98272336 -0.14492078
-24.458361 47.391857 -24.63081 0.10459775 0.98335642 0.14855796
-26.617041 47.181316 -21.4526 0.38904759 0.85349339 0.34668571
-28.086302 46.325294 -18.050268 0.48654136 0.80157864 0.34748977
-30.801863 46.498878 -14.088415 0.53507 0.78954655 0.30052656
30.474791 46.915173 21.257814 0.4522019 0.8436867 0.2893202
29.130289 44.691929 26.281883 0.57051021 0.69007301 0.44532827
29.726475 46.201057 23.627792 0.59254313 0.68783641 0.41925368
23.842302 46.919697 29.199183 0.41221735 0.77983004 0.47110721
33.315392 46.423698 16.762514 0.6491555 0.71589977 0.25706965
28.067801 47.160919 21.206734 -0.31470308 0.93484372 -0.16440569
28.300922 47.246494 22.934532 0.12849891 0.98820603 0.08328791
26.504166 47.215324 25.740204 0.2414161 0.95011431 0.19748713
32.288395 47.403034 14.833227 0.13385248 0.9900977 0.04230924
26.063786 47.145775 24.090326 -0.25224915 0.94421095 -0.21174538
22.101999 47.348549 29.571667 0.22507483 0.93080258 0.28800693
23.436193 47.28764 27.50173 -0.10548528 0.98426718 -0.14174244
32.352207 46.855503 10.985961 -0.42152572 0.8998363 -0.1122976
18.707375 47.289547 31.240227 -0.068795025 0.99451298 -0.078811377
21.094736 47.063641 28.893425 -0.32781357 0.85961694 -0.39191452
25.184141 43.921745 16.826422 -0.26073772 0.95226479 -0.15876889
21.081072 44.053257 22.861311 -0.29717392 0.91342223 -0.27811432
27.225779 43.784302 11.668057 -0.28959489 0.95441532 -0.072292738
15.802869 47.284958 33.314358 -0.13161901 0.96679759 -0.21904087
35.85154 46.93531 2.9614205 0.62998205 0.77629948 0.021949189
19.578321 43.822998 23.793367 -0.21977447 0.94807124 -0.2299134
26.493378 43.650349 14.327597 -0.24895303 0.96062249 -0.12339711
22.250187 43.554508 18.293066 -0.12349605 0.98954725 -0.07446409
16.631153 43.758324 26.239304 -0.12983195 0.97905308 -0.15683992
17.851097 44.198292 26.576223 -0.26683378 0.91296804 -0.30868912
22.713943 43.413822 15.298546 -0.060198061 0.99616849 -0.063437782
21.123846 43.545895 21.212181 -0.16666198 0.97615576 -0.13908178
28.498301 43.894043 8.2742653 -0.27304596 0.95532358 -0.11314892
17.942835 43.566616 22.765574 -0.081639819 0.99093783 -0.10666334
23.997692 43.296406 13.003168 -0.10350739 0.99383932 -0.039618932
25.785177 43.454823 10.095449 -0.14404701 0.98859441 -0.043948155
12.19433 47.389629 35.008183 -0.02830386 0.99487007 -0.097121522
27.405113 43.413952 5.6543903 -0.1435073 0.9890241 -0.035171598
19.831013 43.303547 16.524759 -0.056719474 0.99716687 -0.049408749
17.302315 43.290821 20.770252 -0.061622813 0.99645871 -0.057207771
14.001611 43.404919 24.86307 -0.075609066 0.99346608 -0.085489281
10.545044 44.152206 30.62262 -0.18302707 0.90217924 -0.39060703
9.7827024 47.182198 37.053093 0.059755232 0.97576863 0.21048699
22.365911 43.178066 11.716689 -0.059257641 0.99739629 -0.041099526
12.245787 43.787827 29.071125 -0.11974053 0.94972491 -0.28928316
9.909235 47.05904 35.089298 -0.13446841 0.90617716 -0.40095037
7.7884283 46.15823 34.628937 -0.21432139 0.75174028 -0.62366086
24.008371 43.22694 7.9877639 -0.073096082 0.99707121 -0.022491423
9.237874 44.320045 31.973886 -0.19736664 0.864618 -0.46204135
13.329531 43.599552 27.505327 -0.071898885 0.98844606 -0.13343529
11.959888 43.251938 24.637896 -0.038922116 0.99639654 -0.075359724
27.157042 43.38176 0.48268944 -0.12322503 0.99235171 0.0073245442
25.549452 43.270809 4.718348 -0.09329652 0.99558496 -0.010318497
21.850481 43.076492 6.9495974 -0.065064669 0.99757278 -0.024804093
20.234751 43.020004 10.504106 -0.052406356 0.99835461 -0.023275714
18.339958 43.286968 18.522455 -0.060383875 0.99765426 -0.032244131
14.342744 43.192947 21.444906 -0.050689548 0.99717993 -0.055341423
10.133376 43.283905 25.094831 -0.043045823 0.99530023 -0.086743698
7.1529932 44.513348 33.050564 -0.16234495 0.83739579 -0.52193135
7.5184598 47.230129 36.152443 -0.073367231 0.97216451 -0.22251603
10.153601 43.566921 28.400923 -0.062398054 0.98972744 -0.12863171
8.8579311 43.66774 30.108223 -0.067816459 0.98415428 -0.16383283
4.5197988 44.121857 33.147213 -0.10415459 0.83760929 -0.53624856
34.157391 46.842876 -9.0320368 0.64811802 0.73045993 -0.21533978
16.992964 43.012333 13.769981 -0.040361088 0.99756509 -0.056876201
5.6779075 47.334087 36.918419 -0.0054069976 0.99769473 -0.067645177
26.805122 43.438385 -2.6870916 -0.12093881 0.99182701 0.04065641
23.302818 43.083099 3.5875056 -0.073399357 0.99717563 -0.015916618
17.602613 43.167496 15.6797 -0.044717647 0.998272 -0.038124088
14.694201 43.081501 18.338789 -0.045467496 0.99855769 -0.028553281
12.620762 43.116879 21.628246 -0.04339854 0.99771655 -0.051750809
7.9714565 43.183769 25.664312 -0.029326646 0.99606806 -0.083596565
16.519249 42.896469 11.842449 -0.031040909 0.99874079 -0.039409582
4.0052285 46.781204 36.179722 -0.098459385 0.82174999 -0.56127775
28.371996 43.829689 -5.733191 -0.31094816 0.94698322 0.080833644
16.593113 42.830189 8.8924017 -0.039300375 0.9989562 -0.02328049
6.2103925 43.362858 27.784355 -0.018299099 0.99498087 -0.098378055
1.7718574 44.939823 34.570377 -0.059684601 0.77419716 -0.63012427
32.524094 46.990299 -12.799938 0.5751372 0.77677274 -0.25659555
19.90214 42.889778 6.6060877 -0.053541999 0.99832904 -0.021735709
3.8096635 43.398785 28.41396 -0.025329284 0.99411392 -0.10533663
5.1519728 43.662228 31.059975 -0.049403977 0.98100191 -0.18760197
1.8757592 43.840294 32.669785 -0.035438765 0.97394669 -0.2239911
19.682253 42.882496 3.7882154 -0.048695412 0.99872726 -0.013142521
13.770435 42.976509 13.906009 -0.026308432 0.99872917 -0.042987313
11.361603 42.985672 19.408695 -0.0486315 0.99831742 -0.031580217
9.4576254 42.838409 18.573484 -0.044393729 0.99835396 -0.036311597
9.5295191 42.985107 22.318264 -0.038138729 0.99757677 -0.058188874
-0.0032839896 47.156246 38.632149 0.001490904 0.97533017 0.22074604
31.72271 47.344521 -11.439612 -0.13921911 0.98832655 0.061876155
12.830256 42.968784 16.169571 -0.045173455 0.99886179 -0.015309202
-0.64226168 47.187267 37.285358 -0.015436164 0.90483445 -0.42548349
23.226446 43.084362 -0.78275186 -0.074476339 0.99680102 0.028999975
26.705822 43.607018 -7.2327666 -0.19226363 0.97963858 0.05781715
25.286831 43.370815 -5.094296 -0.095727928 0.99508107 0.025489768
23.568026 43.200287 -3.1753614 -0.062111009 0.99698114 0.046591919
22.089582 42.95171 1.4130234 -0.066581383 0.99777412 -0.0037123575
14.530369 42.829151 11.057204 -0.024779214 0.9987694 -0.042961054
11.146843 42.876854 13.442123 -0.035937984 0.99905133 -0.024595475
6.17238 42.982861 22.851622 -0.015115269 0.99785584 -0.063680813
3.2628801 43.196239 26.421139 -0.010221308 0.99718696 -0.074253887
-2.2229905 44.0145 33.431877 -0.00064033957 0.93973559 -0.34190157
8.8306313 42.769218 15.335086 -0.037440188 0.99929368 -0.0032006057
6.0535336 42.808559 20.715322 -0.010560833 0.99855858 -0.05262462
0.54160851 43.372505 29.689257 0.0011063782 0.99469632 -0.10284956
21.253635 43.010654 -2.3525078 -0.061622772 0.99667007 0.053399906
18.017929 42.764088 2.1510725 -0.03653739 0.99922687 -0.014515226
0.20357142 43.998421 33.503525 0.003920455 0.96894431 -0.24724825
16.609802 42.78191 6.0242562 -0.03549375 0.99924564 -0.015758321
10.096266 42.818649 12.429831 -0.021123808 0.99962944 -0.017172221
24.481535 43.368435 -7.5831509 -0.086199455 0.99609631 0.019019492
18.392923 42.753109 -0.17753275 -0.052667372 0.9984802 0.01622967
7.1292858 42.702946 18.053648 -0.024964271 0.99948436 -0.020194076
25.577574 43.764233 -12.216503 -0.2118154 0.97066921 0.11373446
18.102732 42.85984 -2.5058868 -0.037779372 0.99742615 0.060941987
12.987453 42.727791 8.648077 -0.037709024 0.99891531 -0.02731872
25.545982 43.534073 -9.7254963 -0.18431649 0.97929543 0.083713368
18.381359 42.963802 -4.1143093 -0.044332523 0.99758428 0.053480539
19.787712 43.126724 -6.0966105 -0.049928933 0.99857473 0.018855779
14.843596 42.708866 3.6428623 -0.030568773 0.99952704 -0.0033692298
12.192179 42.597828 6.4062028 -0.033575166 0.99932438 -0.014952131
3.2132146 42.951145 22.861925 -0.0020076374 0.997787 -0.066461928
-2.3616641 43.473537 29.539127 0.012096417 0.99478078 -0.10131618
16.282303 42.63876 -0.64250726 -0.019180326 0.99952048 0.024307471
1.3786477 43.133324 25.233433 0.0031131119 0.99760485 -0.069100849
-2.2815683 43.148556 26.076252 0.014499189 0.9968912 -0.077445239
22.954983 43.266159 -8.9932384 -0.058102749 0.99767518 0.035611872
-5.4664097 44.26841 33.813992 0.10627513 0.873923 -0.47430393
-6.068593 47.219627 36.931412 0.053074073 0.87385875 -0.48327431
18.950283 43.159286 -7.5431824 -0.038311087 0.99925053 -0.0055330489
15.756113 42.717148 1.5099657 -0.020908732 0.99975264 -0.0075793299
4.4841824 42.675606 16.663948 0.00045779333 0.99981689 -0.019131271
-4.563488 43.582691 31.181513 0.033641752 0.99024099 -0.13524444
22.144304 43.290356 -10.637545 -0.0653276 0.99732178 0.032888133
15.352162 42.851753 -3.9846592 -0.022844955 0.99965382 0.013051029
13.534888 42.690948 -1.4548357 -0.0261079 0.99919999 0.030296098
0.035436884 42.945072 22.942987 0.0042586019 0.99825925 -0.058824997
-4.3879595 43.336002 26.795361 0.043777354 0.99675918 -0.067487746
-7.6159668 46.472347 35.749264 0.11523431 0.79528946 -0.59517699
9.0255165 42.557549 7.2091832 0.0016637507 0.99999225 -0.00357662
18.779484 43.118141 -9.6570187 -0.065088443 0.99787945 0.00028280501
5.0529943 42.66235 14.067492 -0.013672697 0.99980539 0.014221198
-6.3039036 43.622959 29.698071 0.050256886 0.99471563 -0.089526296
10.709188 42.566433 2.6253195 -0.032090928 0.99948317 0.0018701203
0.55041397 42.748211 17.074688 0.011543121 0.99959785 -0.025899142
1.4544061 42.798798 20.060862 0.0068650465 0.99926043 -0.037833624
22.693254 43.442684 -12.823366 -0.093578205 0.99296111 0.072603174
1.7551211 42.653282 14.191314 0.010114023 0.99981385 0.016431198
-2.0538421 42.843647 20.378029 0.024400782 0.99902534 -0.036783755
-8.4020596 47.259399 37.756618 -0.026029224 0.98388797 0.17688097
20.008078 43.235546 -11.544653 -0.036545645 0.99757308 0.059264075
14.072838 42.490593 -4.4627066 0.019888977 0.99976647 -0.0084503554
3.9206131 42.799343 12.261738 -0.023980705 0.99777108 -0.062271394
-10.402414 47.392395 36.478519 0.12064189 0.94269931 -0.31106853
15.648593 42.828117 -6.1271925 0.049947299 0.99557847 0.079553381
13.052361 42.893703 -3.0901239 -0.096478283 0.99164027 -0.085682921
12.279996 42.501904 -3.4271696 0.022005159 0.99840587 0.051975168
4.5574198 42.417015 11.029125 -0.13232002 0.92531222 -0.3553713
-3.5640624 43.022194 23.274033 0.042464934 0.99752706 -0.056003608
21.214006 43.57156 -16.041836 -0.08842288 0.99203217 0.089741938
14.239823 43.01173 -6.5464234 -0.07929305 0.97641891 -0.20079523
-32.521698 47.261414 -13.474529 0.19552904 0.96367413 0.18193533
2.765559 42.466099 12.028351 -0.16820173 0.89357579 -0.41620964
1.5053478 42.797241 13.152283 -0.04068188 0.99218285 -0.11797551
9.8232775 42.55056 -0.039506491 -0.015622222 0.99967861 0.019963685
7.2296648 42.350449 1.4880795 0.029310504 0.99559551 0.089053161
-5.8230586 43.122086 22.348705 0.039645191 0.99729592 -0.06187813
18.855667 43.307652 -14.322104 -0.062384829 0.99735564 0.037280105
13.874602 42.48711 -7.1607652 -0.054342445 0.99495655 0.084309667
10.59044 42.509102 -2.7659299 -0.029901242 0.99896002 0.034421198
9.7129087 42.662621 -2.046113 0.11910478 0.99271417 -0.018235944
-33.857868 47.146324 -9.204999 0.42085412 0.8992216 0.11950863
19.097198 43.667446 -18.727673 -0.077990144 0.99323678 0.086012676
16.428425 43.239651 -15.269363 -0.040525656 0.9957124 0.08315333
8.3591223 42.81403 -0.7399531 0.073531412 0.98699784 0.14292821
-10.217617 44.000546 31.877617 0.093001381 0.96216905 -0.25608897
-11.448316 45.538155 33.892063 0.20693222 0.7554419 -0.62168044
15.172954 42.882843 -12.318503 -0.07722187 0.99686038 -0.017499266
15.638586 43.173527 -11.312435 -0.04688549 0.99861211 0.023989452
1.4040687 42.405346 12.374381 -0.079836458 0.8943581 -0.44016999
-13.509733 47.316612 35.319111 0.096416175 0.95922321 -0.2656967
-7.7489882 43.395977 26.181261 0.034079544 0.9973945 -0.063582622
-11.809124 44.308685 32.022861 0.1468998 0.92880458 -0.34020945
12.599282 42.638042 -8.9143286 -0.05592525 0.99674851 0.058006469
-4.0709815 42.836651 18.488012 0.02498267 0.99933183 -0.026679637
-6.8271198 42.923916 19.970646 0.031240873 0.99702209 -0.070505179
24.37863 47.075829 -24.42524 0.41296113 0.80857873 -0.41912222
13.063407 43.095779 -10.203871 -0.046088029 0.99681818 0.065033369
-10.772297 43.703075 28.795456 0.043535754 0.99422234 -0.09811493
13.757535 42.941395 -13.694437 0.013026836 0.99077392 0.13489737
13.132322 42.942013 -11.379123 -0.064409621 0.99783003 -0.013659355
12.052318 42.69228 -10.727377 -0.031633839 0.99844229 -0.045958091
-9.6393452 43.2286 21.563261 0.041436046 0.99713838 -0.063231014
-10.584934 43.408772 24.694574 0.042100102 0.99714947 -0.062614597
19.833635 43.835953 -20.024475 -0.23288853 0.94190609 0.24202442
16.157404 43.372303 -17.651085 -0.04177165 0.99668264 0.069848664
11.217435 42.809448 -12.371179 0.0023856417 0.99170637 0.1285024
-13.718916 43.786934 28.971176 0.062560335 0.98576587 -0.15605076
16.356461 43.465389 -19.061022 -0.057834767 0.99560159 0.073705576
-28.252838 47.319912 -20.632971 0.019756148 0.99950796 0.024362424
-15.560553 46.987232 33.769211 0.20858322 0.86497915 -0.45640343
-13.140551 43.451675 23.773441 0.038995955 0.9976368 -0.056569148
-6.2860579 42.942989 15.858412 0.010495418 0.9974795 -0.070174739
-12.683504 43.637039 26.083168 0.029846564 0.9975158 -0.063807979
13.970343 43.210587 -16.323469 -0.019927751 0.99934995 0.030043038
-6.6683545 42.484844 13.875648 0.036445919 0.98632091 -0.16075721
-15.850438 43.711132 26.846783 0.057311378 0.99569166 -0.072894566
-15.843611 44.103832 29.501694 0.19502564 0.93040681 -0.31033555
12.332122 43.152954 -16.732395 -0.053033769 0.99812359 0.030605953
10.110945 42.893906 -14.752478 -0.060404208 0.99797279 -0.020040492
9.4732313 43.153393 -13.512921 -0.045180704 0.9940269 0.099343605
-8.4819374 42.785213 15.839044 0.035713885 0.99805874 -0.051022794
-9.3504353 42.9617 18.517698 0.034857467 0.99837792 -0.045016307
-17.8008 47.264149 33.256054 0.15265043 0.95273829 -0.26265508
20.230831 47.068195 -25.478777 -0.2667059 0.89097923 0.36745614
-7.4502683 42.698097 13.18862 0.066549264 0.99777704 -0.0034787813
15.607086 43.907986 -23.515039 -0.16713342 0.94644952 0.27622408
13.047753 43.484699 -19.480339 -0.0051720198 0.99270618 0.12044799
15.258364 43.569881 -21.568071 0.0069389353 0.99375945 0.11132818
-6.0494113 42.591076 8.6386166 -0.016639218 0.9998616 -7.3272757e-05
-13.226809 43.305096 20.402161 0.03786194 0.99750441 -0.059594572
