# .PCD v0.7 - Point Cloud Data file format
VERSION 0.7
FIELDS x y z
SIZE 4 4 4
TYPE F F F
COUNT 1 1 1
WIDTH 1360
HEIGHT 1
VIEWPOINT 0 0 0 1 0 0 0
POINTS 1360
DATA ascii
-0.22177449 -0.14495553 0.021305799
-0.12448636 -0.099255219 0.25600421
-0.047652006 -0.11737157 -0.25444075
-0.23193786 -0.059789076 0.033884346
0.14698949 0.11963369 0.26410067
0.19199765 0.23165153 -0.17002994
-0.14223376 -0.21943784 -0.19621289
0.24672334 -0.065563366 -0.054649949
0.23129156 0.03983517 0.022932231
-0.078573883 -0.10467443 -0.26354787
0.19309914 0.20429848 -0.19997111
-0.18211207 -0.18064508 -0.23494262
-0.26025024 0.14293049 0.15336412
-0.2269471 0.0086996704 -0.24205613
0.14342615 -0.25790903 -0.036415577
-0.10263476 0.24215348 0.11109978
-0.20773825 -0.25429872 -0.016305983
-0.22796139 -0.054763898 -0.064815998
-0.1993427 -0.2965433 -0.051394463
0.11030041 0.027169719 -0.26984861
0.25178728 -0.040232494 -0.22663629
0.21635808 0.073518738 0.26506501
0.24018958 -0.081099883 0.1253233
-0.21599486 -0.093776777 -0.22944334
-0.18428981 -0.091642216 -0.27556518
0.11218971 0.24676313 -0.14571249
-0.018819779 0.27143961 0.058459878
-0.14878276 -0.11390102 0.2506904
0.13153118 -0.20660537 0.17090678
0.016821712 -0.028804511 0.27472132
-0.12673798 0.073519126 0.25869721
0.15666881 0.24391498 0.16816473
-0.18977115 0.23491187 -0.11388075
0.24436787 -0.013155028 -0.13162965
0.21932711 0.14764436 0.019274592
-0.22819951 -0.056620494 -0.055100143
-0.096736878 -0.176883 -0.22603029
-0.076301724 0.26957607 -0.0014356375
-0.23253921 0.1411425 0.21099943
-0.117654 -0.27593124 0.08468318
-0.22691968 -0.10746603 0.041430175
0.19473812 0.29643714 -0.03068012
0.20832472 0.0058519989 -0.26730618
-0.25712565 0.20337634 -0.062354624
-0.12881684 -0.090800881 -0.27201849
0.19501138 -0.13770781 -0.21801049
0.24455503 -0.12102738 0.12810397
0.098216981 0.0057438016 0.28046751
-0.10335323 0.18679582 -0.19708633
-0.16634694 0.23305638 0.11365122
-0.069112778 0.11313312 -0.25235555
-0.24910906 0.13559152 -0.070786893
-0.10020536 0.26330268 -0.043947667
-0.094072878 0.038831308 -0.27652252
-0.14094809 0.14029603 0.22472274
0.067586035 0.25035197 0.14008528
0.20926818 0.18906413 0.13656402
0.18574113 -0.23579264 -0.095451355
-0.25236085 0.043358549 0.2254287
0.021931291 0.096159682 -0.25775337
-0.21442035 -0.22948875 0.068225026
-0.22095844 0.18600212 -0.18807822
-0.062975109 -0.0075002611 0.27343547
0.2302286 0.15085374 -0.22546414
0.21844241 0.20962732 -0.11307982
0.02525124 0.22402628 0.1695444
-0.24577859 0.18694548 -0.18488955
-0.22574559 -0.13724922 0.088752687
0.25779465 -0.099777624 -0.21155992
0.19901712 -0.1428865 0.22945809
0.13576996 0.25675553 0.14507264
0.21342786 0.10131137 0.26077259
-0.033257097 0.12168013 -0.24911633
-0.049753338 -0.0068392009 0.27397871
0.21528426 -0.19839263 0.1733554
0.22011483 0.088061228 0.1478672
0.25380528 -0.18446258 0.082225502
-0.057905018 0.086940691 -0.26150987
0.22653691 -0.014577836 0.25931752
0.2465905 -0.017917767 -0.16828012
-0.13143265 0.18944456 0.18417674
0.22179416 0.02788116 0.25854492
-0.14964053 -0.20601034 -0.20871052
-0.22656485 -0.14600484 0.12796658
0.097814813 0.19424738 0.21262515
-0.21829119 0.038101301 -0.27973583
0.12708196 -0.26307768 0.025451899
0.045717657 0.031196132 -0.27193066
-0.038245261 -0.26544589 0.091537535
0.25267041 -0.15662888 0.038819849
0.25378907 -0.086567178 -0.15682399
-0.22526613 -0.097933337 -0.017813623
-0.19033009 0.12750877 -0.24056038
0.19646899 -0.24951883 0.05876255
-0.18793371 -0.26865795 0.11281925
0.20337144 0.23277317 0.15781081
-0.050741822 0.27186882 0.0075774789
-0.22503611 -0.014602765 -0.22659463
0.08708632 -0.079245672 -0.25914741
0.20711184 -0.02635622 0.28198379
0.22606318 0.08805339 0.018628478
-0.050753117 0.10899411 -0.25369638
-0.13697153 -0.19930588 0.20130455
0.12981027 0.27445251 0.10432529
0.089732632 0.26474214 -0.10437566
0.25345948 -0.11848528 -0.071606755
-0.21968785 -0.2119654 0.13983524
-0.24550161 -0.021401331 0.23474687
0.23293902 -0.066455677 0.24706632
-0.06478706 0.27033216 0.0063404441
0.048824191 -0.098535463 0.25736332
-0.24270967 0.0939769 -0.10807842
0.24560358 -0.053316146 -0.060268044
-0.26051357 0.21804328 -0.0246014
-0.25768951 0.193143 0.15512723
0.25234756 -0.1381346 -0.20950761
0.08700271 -0.2677778 0.0082293153
0.13907218 -0.13564402 -0.22718686
0.18167715 -0.25287044 -0.044507116
-0.23894551 0.10629649 -0.22000143
0.084093645 0.23868774 -0.15276578
0.1979758 0.050418422 -0.26475942
-0.22259709 -0.15079559 0.053462863
0.11573473 0.15945329 -0.22818065
0.22376436 0.13331915 -0.042115033
0.058952928 0.28241259 0.03680712
0.23386966 -0.057771429 0.20560628
0.083969519 0.04812865 0.27742869
0.0085659623 -0.26357064 -0.081298172
0.021636158 0.11441092 -0.25132659
0.12230283 0.010355279 0.28172576
0.090030432 -0.08161436 0.26358634
-0.21348062 -0.22705671 0.041856289
0.22545922 0.09538658 0.013819158
0.16340867 0.13008194 0.26077104
-0.24426058 -0.016525015 0.19585431
-0.070745677 -0.097181439 -0.26632833
0.2063877 0.26929814 0.0029456615
-0.094015807 -0.25228322 0.12913615
0.055052847 0.11226355 -0.25186983
-0.058658004 -0.28067297 0.034229755
-0.25945672 0.1998008 -0.0029553175
-0.0066727698 -0.1968035 0.19393438
-0.02673021 0.27100837 0.056513309
0.21806014 -0.22866811 -0.10388801
0.14653949 -0.00050227344 -0.27025968
0.0042416155 0.27594274 0.03848654
0.17611897 0.28250778 -0.08378008
-0.18944418 0.20834945 0.14730489
-0.24557969 -0.013507649 0.21713972
-0.2123754 -0.14003094 -0.19498062
0.26035845 -0.13627553 -0.17801639
-0.21929082 -0.071495801 -0.2123093
-0.072382092 -0.25931883 -0.12304631
0.15635404 -0.023878977 -0.26530355
0.11451155 0.14905049 0.24689698
0.24570724 0.023809612 -0.25113073
0.24614419 0.015826017 -0.24110201
0.1529558 0.29197967 0.054718554
-0.0012509525 0.25763434 0.10418051
-0.063139051 0.20944037 0.17223352
0.25904551 -0.21318267 0.038589835
0.12716979 0.27172017 0.11113304
0.098742768 0.28719664 0.034528971
-0.25703785 0.21587454 -0.094826102
-0.0059316456 0.27761173 0.00024151802
0.053772673 -0.26780725 -0.043109894
0.23296243 0.11969091 -0.20866215
-0.19911298 -0.15660433 -0.25087181
-0.24829993 0.16140245 -0.15149075
0.22362587 0.12659328 -0.022657394
0.18429957 -0.20479777 0.16854727
0.0761237 -0.019780457 -0.27141115
0.049382031 -0.16559041 -0.21491456
0.091775686 0.23056598 0.17398524
0.042693019 0.085479125 -0.261383
-0.23300031 -0.091391727 0.13425231
-0.074047863 -0.16055323 0.22580236
-0.19485578 -0.1869441 -0.23138207
-0.24764815 0.018129542 0.18472004
0.076423615 0.27329975 0.088051498
0.24969546 -0.13166262 0.042410553
-0.24093273 0.040466413 -0.015832603
-0.018532664 -0.17414352 0.21482617
0.18493843 -0.23536003 0.11207503
0.23689461 0.069614783 -0.171648
0.21607687 -0.019126207 0.28288656
0.20294066 0.25322843 0.1171484
-0.043259233 -0.23288183 0.15520692
-0.1594305 0.06747745 -0.26901311
-0.21520737 -0.18547121 -0.022318363
-0.25736985 0.19317906 -0.032109261
-0.091698855 0.2410066 0.11836904
0.074329466 -0.2516903 0.098963082
0.052185625 -0.19617048 0.18969923
-0.25448725 0.095383659 0.1444087
0.21166979 0.21528618 0.020251274
0.1166504 0.28301382 0.075142145
0.0032087862 -0.15876378 0.22464806
-0.24032798 0.086632624 -0.14187157
0.14220089 -0.26180756 0.014014781
0.24246514 -0.026154533 -0.058493018
-0.14664477 0.0812902 -0.26406628
0.21494198 0.21385528 -0.047354281
0.22954486 0.07737036 -0.030903578
-0.068026513 -0.25146469 0.12597996
0.2184463 0.055210426 0.2644608
-0.26503453 0.1874321 0.14849961
0.12444736 -0.26066166 -0.029008508
-0.13076478 0.26234275 -0.032368362
-0.10534671 0.096372679 0.25004834
-0.22714695 -0.084101781 -0.010768473
-0.12261701 0.23026444 -0.13600823
-0.053290457 -0.26282656 -0.10607168
-0.23321274 -0.12679486 0.22544819
0.20729902 0.14590211 -0.23905
-0.091323465 0.14994879 -0.22829819
-0.25348714 0.20478363 -0.14486009
-0.2417185 -0.052455127 0.22848165
-0.097553104 -0.088546649 0.25994784
0.21492876 0.1095524 0.2080043
0.025314987 0.27739042 0.051860213
-0.10328966 0.17532407 -0.21038777
-0.25798616 0.17258562 0.03164351
-0.061510444 -0.28014347 -0.05697614
0.24908501 -0.031077549 -0.19030383
0.078801528 0.029534712 0.28050512
-0.26000604 0.15585376 0.11645323
0.02698192 0.086299315 -0.26119432
-0.11168805 0.028665766 -0.27797791
-0.23702481 -0.04088977 0.098204315
-0.080588013 0.18037449 -0.20645052
0.24644156 -0.0024464875 -0.20287865
-0.26059648 0.15065952 0.14198607
0.21784651 -0.18680796 0.18656611
0.25778678 -0.19362518 0.018114686
0.19243751 -0.076266512 -0.25008264
-0.11137575 -0.27090412 -0.10436052
0.12394972 0.29271585 -0.00032377243
-0.060512513 0.028365508 -0.27610037
0.063437521 -0.25869042 0.083018243
0.25563812 -0.15918756 -0.019411862
0.22656929 0.1209995 -0.072938949
0.18756688 0.085059658 -0.26060653
-0.20397353 0.12598179 0.2261731
0.22940566 0.061541215 0.010831356
0.21934257 -0.15147668 0.22297406
-0.22934875 -0.037113383 -0.077832401
0.14970264 0.018307269 0.28337032
-0.23066619 -0.076196566 0.046373308
0.25973806 -0.18891296 -0.035810411
-0.025903255 -0.097850457 -0.2615498
-0.25466725 0.1687571 -0.031113446
0.22639444 0.15630473 -0.15547794
-0.13725951 0.083185896 -0.26333869
-0.22026089 -0.21244159 0.15345168
0.053338766 0.21355315 0.18985426
0.01234892 -0.2673164 -0.069253385
-0.16928193 0.1210622 -0.24560446
-0.22429231 -0.10311291 -0.026307404
-0.25422439 0.17840604 -0.06433171
0.222251 0.063620523 0.16121769
-0.20876393 -0.22239438 -0.07203728
-0.23649541 -0.076028064 0.17263025
-0.070557475 0.015616283 -0.2774781
0.23612052 0.050279811 -0.10754347
0.21175212 -0.09313418 -0.2401492
0.14417963 -0.21918494 0.15309799
0.21475978 0.21199755 -0.038852215
0.23463264 0.11219366 -0.22662142
0.0076769888 -0.26466668 0.082018256
0.19076598 0.24883448 0.16815734
-0.22670445 -0.026886001 -0.16030297
-0.24053654 0.014992788 0.037853837
-0.057562917 -0.27855843 0.04470998
-0.11022463 -0.28819406 -0.024737954
0.040002108 0.22849546 -0.16085678
0.10921225 0.28500593 0.066749156
0.11706546 0.13329567 0.25463462
0.066245854 0.097332969 0.26666158
-0.19332987 -0.25125483 -0.16329974
-0.21403155 -0.081137881 -0.27948248
-0.21434304 0.09095706 0.24177837
0.12774372 0.13709073 0.25389403
-0.13301829 -0.019308448 -0.28255054
0.013516515 0.27110964 -0.064857334
-0.1900306 0.013639152 0.26549178
-0.091178417 -0.11361562 -0.26055464
-0.24909601 0.10517295 0.0033178926
0.23107243 -0.044933572 0.23499525
-0.038771629 0.24281065 -0.12572324
-0.20165816 -0.27827695 -0.089785844
0.12058118 0.16830994 -0.22228873
-0.22128567 0.17253147 -0.2036635
-0.085311025 0.047175631 0.26630861
-0.1011605 -0.20036522 -0.20664084
0.21656555 -0.11415589 0.24851495
0.23673472 -0.079674736 0.19691247
0.050476983 -0.27027765 -0.015075862
0.2388199 0.013902619 -0.077240735
-0.14868873 -0.28024119 -0.09145689
0.014022291 -0.23149584 0.15193671
-0.2651225 0.18073605 0.16678584
-0.10018095 0.24354018 -0.11276242
-0.020820975 -0.012415797 0.27461421
0.23700176 -0.085389614 0.20508534
0.25569668 -0.10960352 -0.14194185
0.016013235 0.087841973 -0.26072091
0.097250551 -0.13074616 -0.23367354
-0.23140582 -0.13691412 0.21092981
0.093863577 -0.25136265 0.095996737
0.12124205 0.036978915 0.28196728
0.11821049 -0.255741 0.06870091
-0.16529995 -0.28690135 0.05956018
-0.24798331 0.070654288 0.063553154
0.15122938 -0.22900416 -0.12337095
-0.023938239 0.26164836 0.084448159
0.22380236 0.13841443 -0.055401355
-0.18186277 -0.21486458 0.18778998
0.052247047 -0.23450674 0.13858634
-0.09512955 -0.28632414 -0.026341081
0.022910565 0.16268809 -0.22312072
0.21919408 0.21686567 -0.14711481
0.2277777 0.10742085 -0.065991312
-0.21954986 0.030522063 -0.28183892
0.18979307 0.16166143 -0.22895116
0.086045325 -0.10997256 -0.24465564
-0.25075242 0.22652672 0.10131758
0.23665014 -0.030692562 0.078964829
0.1728135 0.24384056 -0.1542829
0.024765283 0.24626316 0.13705099
-0.058857471 0.26889735 -0.037114203
-0.10138452 0.19248773 0.18584806
0.20527619 0.20178168 0.19220966
-0.20529711 -0.24592927 -0.089818627
-0.048788637 -0.024652719 0.27261096
0.060539335 0.28265905 -0.029918253
0.030970991 -0.27103007 -0.035342634
-0.21463338 -0.1091072 -0.22153729
0.035961628 -0.27164233 -0.019353092
0.038078308 0.27659118 -0.04949379
-0.2380645 0.06193544 -0.13066202
-0.20695511 -0.23635867 -0.077195168
-0.24024412 -0.068110645 0.23472887
0.11807162 -0.21444184 -0.15154469
-0.07825619 0.25990808 0.069505095
0.017460465 0.239987 -0.14204529
0.12870173 0.11668561 -0.24984241
-0.089172959 0.15744801 -0.22324932
-0.21470842 -0.16302219 -0.088059157
0.12906189 0.2770009 0.096798837
0.038354367 -0.26626962 -0.062707126
0.20378453 0.24827556 0.11092335
-0.177286 0.074059799 0.25349087
0.22868171 -0.015371338 0.21465141
0.20896409 0.15151717 0.23499262
0.076155663 0.28441072 0.036764324
-0.14825094 -0.21395834 -0.20173803
0.2574909 -0.21225664 0.070107162
-0.2267144 -0.10499017 0.030915737
0.18159483 0.21753947 -0.18550801
-0.20260417 -0.29208982 -0.035451055
-0.25603119 0.14776762 0.0498541
0.000308007 -0.041756824 0.2730872
0.24357249 -0.14107691 0.19848573
0.20826726 0.226189 0.067525744
-0.06018132 -0.16155842 0.2246905
-0.22660944 -0.16371141 0.17223644
-0.2042636 -0.23979089 -0.1272884
-0.12165058 -0.059083119 0.26719111
0.13948053 -0.12916906 0.24064463
-0.26247314 0.16217537 0.15460491
0.21814092 0.14728834 0.045921326
0.25203079 -0.16779596 0.080027163
-0.17225465 0.1209016 0.23174143
0.002020061 -0.088703558 0.26052785
0.034666985 -0.24873745 -0.11394858
-0.065130264 0.1948363 0.18899238
-0.080057174 -0.17958054 -0.22136307
0.24214853 -0.10300004 0.13631177
-0.24067429 -0.015295729 0.11491817
0.22151919 -0.058128104 -0.2546536
0.24196821 0.04578279 -0.26349032
-0.24196908 0.12711407 0.22161931
0.22308338 0.023943201 0.24016064
0.12604021 -0.22095586 0.15282202
-0.042943299 -0.21036842 0.18127406
0.21303922 0.067401692 -0.26286158
0.26025504 -0.22437206 0.039670348
0.18707708 -0.25198343 0.050957322
0.25362962 -0.17729428 0.06851238
0.030572981 0.067847654 0.27023745
-0.24048194 -0.020419225 0.12326938
0.004458338 -0.026892632 -0.27488449
0.15595965 0.28492314 -0.069914311
0.0040943027 -0.20600499 -0.18689194
0.09753266 -0.16403878 -0.20940211
-0.014001817 0.21662734 0.17208093
-0.17446873 -0.030878991 -0.28500223
-0.062706679 0.23485698 -0.13769311
-0.24539497 0.11878143 -0.11038488
0.23308538 0.049217626 -0.038991988
0.22933668 0.15564702 -0.21780467
0.15817681 -0.14969645 -0.21301958
-0.25674292 0.16957818 0.01198405
-0.083864719 -0.12313624 0.24785161
-0.035240382 -0.22599617 0.16251075
0.21125093 -0.043782309 0.27768523
0.16871151 -0.17548829 0.20383382
0.07965602 0.2074876 0.19876081
-0.17534232 0.2588256 -0.011302173
0.25355518 -0.087898195 -0.14848667
-0.083735973 -0.23507854 -0.1638537
-0.20626256 -0.24893947 -0.061478078
-0.048540354 0.075414345 0.26356643
0.14229026 0.031680956 0.28414869
0.23607823 0.013863936 -0.017569721
-0.2331222 -0.12310497 0.21445775
0.077981442 0.26006293 -0.11185211
-0.25101784 0.17119648 -0.11638114
0.21360169 0.17654948 0.073000848
-0.14527866 -0.12880689 0.24546248
0.14140886 0.27299702 -0.096957535
-0.16079995 -0.16015446 -0.24537432
-0.23894224 0.0041541308 0.029715836
0.038371176 0.2182322 -0.17261451
-0.19527575 -0.26686758 0.11788779
-0.21877351 -0.11022557 -0.12883791
0.15568769 -0.23917767 -0.096826315
-0.13029346 0.22961809 -0.13591206
0.2632336 -0.16808662 -0.16269958
-0.19512782 -0.27932054 0.092129827
0.1526112 0.26466334 -0.11626604
-0.19289401 -0.14524457 0.23936886
-0.10570902 -0.23767118 -0.16469041
-0.21298775 0.077859059 -0.26569805
-0.1552442 0.24574904 -0.097928613
0.22235808 0.20837672 -0.19510889
-0.21588942 -0.2058787 0.042411268
0.040046334 -0.092224613 0.25953019
0.26250732 -0.17889094 -0.12049535
-0.12233692 -0.27884316 -0.085783273
0.033976853 -0.27131876 -0.026787043
-0.14201507 0.23233949 -0.12810296
0.21825263 0.18625928 -0.05180949
0.23380344 -0.075982839 0.25158107
-0.25541505 0.14951937 0.032182217
0.16532949 0.27133769 -0.10484767
0.20737211 0.20977555 0.12711602
-0.15782651 0.074093714 0.25541049
-0.12481868 0.19718622 0.17713398
-0.20385382 -0.26275617 -0.080030471
-0.21194741 -0.21274352 -0.026461303
0.23549151 0.062730685 -0.12432334
0.24199791 -0.048504546 0.0063165426
0.2147364 0.16106533 0.086209834
-0.082988471 -0.15775205 -0.2387751
0.25088736 -0.10293102 -0.053752363
0.21079537 -0.10610357 -0.23408386
-0.20904177 0.20617731 0.14635438
0.127259 -0.16246146 -0.20652696
0.24138643 0.038240865 -0.19253084
0.23081736 0.022285715 0.076153755
-0.15229648 0.22362529 0.13285238
0.24896911 -0.074991748 -0.080393523
0.17428438 -0.2066676 0.16722548
0.25851205 -0.12642908 -0.16197315
-0.20373043 -0.2527563 -0.10716727
0.0078999698 -0.2689366 0.059532166
-0.19922635 0.0049127191 -0.28310174
0.18730354 0.21444191 0.20811355
-0.24815544 0.16437908 -0.16190934
0.25684547 -0.18838571 0.025755942
-0.25250098 0.21104394 -0.15149707
0.075516164 -0.26530755 -0.042816877
0.21263865 -0.053904995 0.27412856
-0.10162151 -0.10208189 0.25515443
-0.23604408 0.045555875 -0.13450849
-0.080774158 -0.086532503 0.26076436
-0.031557888 0.1709751 -0.21579391
-0.01305446 -0.24482402 -0.13481829
0.23535454 -0.045159295 0.14249665
0.21509784 0.1832373 0.024134576
0.075129434 0.25429934 -0.12322897
-0.10178524 -0.28803587 -0.013723016
-0.2623091 0.24861275 -0.0095911026
0.16895077 -0.24290152 -0.081371635
0.088443667 0.20574854 0.20149064
0.23488165 0.012313709 0.012222946
0.020192951 -0.2393422 -0.13582319
-0.028262168 0.15311776 0.22978902
-0.15476856 -0.27785504 -0.10047385
0.074413359 0.085786089 -0.26107249
0.092756703 0.27955717 -0.063673228
0.068346813 0.065319106 -0.26832032
-0.21208256 -0.17074135 -0.12624171
-0.25470933 0.16615815 -0.023843765
-0.10235998 0.26775235 -0.017521083
0.25362462 -0.073168784 -0.18601644
0.22849587 0.12741037 -0.1304813
0.23421249 0.079415813 -0.13733348
-0.060939848 -0.15901691 -0.23598102
-0.062883228 -0.24269632 0.14313799
-0.2123324 -0.24080306 0.05052191
-0.23600784 -0.063682854 0.13184601
-0.23948625 0.03384836 -0.031080484
0.23275684 0.091406479 -0.13502529
0.23289722 -0.040183216 0.18372554
-0.036554813 -0.093701378 0.25852132
-0.21839592 -0.13722385 -0.071018308
-0.21138903 0.25224459 0.020927668
0.029031903 0.051011786 -0.27098921
-0.12782711 0.094853058 -0.25916895
0.021122187 0.068684325 0.26945299
-0.23626503 0.08701928 -0.23110446
-0.2094875 -0.22392644 -0.052569211
0.25602922 -0.090995267 -0.19467422
-0.10001749 -0.25604531 0.12248224
-0.25465485 0.13378896 0.054131329
0.22184706 0.12941597 -0.24476415
-0.19866112 0.14564048 0.21197432
-0.050809532 -0.28180495 -0.018010855
-0.063780576 -0.14952415 -0.24077266
0.20334372 0.23720904 0.14756519
0.1198179 0.055305496 -0.26727802
-0.13063559 0.25367075 -0.077860713
0.089600503 -0.095230862 0.25878739
-0.1951336 0.12307347 0.22843391
0.22279924 0.17877091 -0.13229501
-0.26351205 0.21702434 0.043047488
0.25146234 -0.19402984 0.15653449
-0.25363854 0.10382889 0.10531271
-0.20000306 -0.058815211 -0.28265372
0.18907371 0.27121824 -0.109523
-0.1773549 -0.22046947 -0.20031905
-0.16331443 0.25415146 -0.057584137
-0.22471103 -0.0012811571 -0.26623788
-0.16046542 0.12024213 -0.24643484
-0.090621352 0.26135051 -0.059381127
0.095703945 -0.26391393 0.038123727
0.079475105 -0.26575875 -0.03059572
-0.25461248 0.1972876 -0.10207501
0.00078800321 0.026594833 0.27584046
-0.17074347 -0.20390779 -0.21349853
-0.21157068 0.14361392 -0.22892255
0.25680628 -0.1586532 -0.046102822
-0.23714617 6.9871545e-05 0.00067490339
0.24816334 -0.078995585 -0.053092986
-0.1528928 0.058930263 -0.27198201
-0.059075832 0.079080924 0.26218873
0.026727468 -0.25122172 0.10880947
0.23915003 -0.075508073 0.13423806
-0.20882234 -0.23204516 -0.047168553
0.11266038 0.06378217 -0.26687604
-0.025744885 0.24653365 -0.12046042
-0.038820624 -0.07587111 0.26478732
0.26449746 -0.17770991 -0.16662937
0.071369454 -0.081505224 0.26350576
0.25049767 -0.050602391 -0.1732533
-0.25408348 0.06438224 0.21144921
-0.21342865 -0.23310623 0.055521667
0.25022131 -0.19459875 -0.15270433
-0.23189148 0.22242437 -0.13182664
0.015197843 0.00076600909 0.27699113
-0.16689646 0.024759457 0.26498932
0.069629163 0.19283338 -0.20399559
-0.22098193 -0.083318904 -0.14664781
-0.24468425 0.032000676 0.086391687
0.0044457018 0.016582176 0.27783793
0.14641698 0.1811312 0.23070532
-0.21945384 -0.20171085 0.10967237
0.2211448 0.022877559 0.28489178
-0.23068824 0.021168396 0.26139343
0.24500009 -0.04361327 -0.070882469
-0.058642179 0.12133063 -0.24882263
0.21032554 0.17852096 0.13937086
0.029210329 0.16663255 -0.220624
-0.044770569 0.077693596 -0.26468322
-0.24766657 0.15326895 -0.14536241
0.24626017 -0.13363811 0.12189096
-0.16361204 -0.23325828 0.16493052
-0.23481438 -0.10498777 0.20692194
-0.20754468 -0.18694384 -0.18522683
-0.16941285 0.16042466 -0.21875238
0.17461723 0.28414065 0.093167007
-0.0068975091 0.038668677 0.27310616
0.082054332 -0.18646351 0.19842857
-0.2312372 -0.1165096 0.15736723
-0.25643101 0.08592017 0.20978999
-0.21172887 -0.14199863 -0.2042172
0.047065765 0.13617285 0.24630469
-0.10753816 -0.25781271 0.12023318
-0.23658374 0.15878026 -0.21780905
-0.17588419 -0.048528895 -0.28293702
-0.054914623 -0.17820564 -0.21896598
-0.23143432 -0.03053306 -0.048604786
-0.25196269 0.043177918 0.21721905
-0.04897213 0.2643382 0.067624688
-0.032271832 0.18334435 0.20345312
0.21685518 0.06696935 0.27027953
0.090115309 -0.16155043 -0.21257621
0.19115336 -0.10554963 0.25516641
0.22670138 0.018002242 0.1760695
-0.10712627 -0.28631657 -0.045119762
-0.16734242 0.14658226 0.21561724
-0.15054297 -0.114806 -0.26589456
0.018414289 -0.26716566 0.063094139
0.095546991 -0.21562807 -0.15454581
-0.22886339 -0.15401146 0.23502356
0.0047799051 0.087977484 0.26481265
-0.17091405 -0.11023984 -0.27008986
0.033391923 -0.041604415 -0.27024692
0.11560282 -0.19899555 -0.17456296
-0.083229452 -0.23701367 0.15379226
0.22826608 0.10080294 -0.25480166
-0.2346693 -0.049535722 0.068162382
-0.20957574 -0.067767441 -0.2816453
-0.093046486 -0.27811688 0.066305995
0.096006632 -0.24139772 0.11618662
-0.21335873 -0.15277506 -0.14244756
0.24255961 -0.0082913786 -0.10422993
-0.23304275 -0.01686202 -0.047086358
-0.1557239 -0.28728908 0.052325308
0.064701349 -0.098018527 -0.25245708
0.25976726 -0.15335372 -0.12340486
0.21826936 0.12084301 -0.24780667
0.047850549 -0.22790915 -0.1466704
0.11354126 -0.12995699 0.24090451
-0.24901357 0.020477757 0.26029766
0.10538737 -0.18358345 -0.19162628
-0.046584398 -0.24893048 -0.13587624
0.22718188 -0.02681224 0.27522159
0.09992677 0.13043372 0.25428903
-0.22383186 -0.18000853 0.15173393
0.25696206 -0.12648301 -0.12815961
0.23193477 -0.053807631 0.23795789
0.016713291 0.18981721 0.204889
-0.042628318 0.0055828094 0.27522224
-0.23221526 0.1974947 0.15413666
-0.17062983 -0.28987521 -0.07207799
-0.26345935 0.17209293 0.15178132
0.19565259 0.037859991 0.28661805
-0.010193437 0.2451701 0.13130361
0.03894639 0.23325343 0.158979
-0.16412127 0.25585103 0.04610008
-0.21662834 -0.17306016 -0.021790981
0.10506602 -0.077442899 0.2651515
-0.18429106 -0.29675746 -0.025085807
-0.24333414 0.22257413 0.11527008
0.22080079 0.089675054 0.12901467
-0.2459797 0.040280238 0.09429419
-0.10941198 -0.17204466 0.21905148
0.21819249 0.20784943 -0.10330087
-0.15159601 -0.26818049 -0.12684259
0.15441383 0.19477914 0.2202062
-0.205338 -0.02072902 0.26710409
-0.18288067 0.1066079 0.23747391
-0.23690334 0.063266799 -0.15914938
-0.21329013 0.15307848 0.20355713
0.06164439 0.22712778 -0.16426903
0.15640023 0.28224587 -0.080643713
-0.24022123 0.037108406 -0.023081243
0.054119572 0.032473102 -0.27151793
0.1331476 -0.14889152 0.22738707
0.11513191 0.22244109 0.19072407
-0.25633165 0.1844817 -0.033399999
0.021832794 0.25762463 0.11266285
0.2389904 -0.049852327 0.074966073
-0.10970622 0.10160021 -0.25667682
0.032285959 0.28233647 -0.003688395
-0.07808429 0.135682 -0.23843622
0.26452774 -0.23909678 -0.017166734
-0.23862466 0.090581551 -0.18854272
0.23841952 0.00054509938 -0.035875201
0.25919145 -0.21878386 0.049116135
0.036005408 0.26788652 0.088651717
-0.19785538 -0.025026977 -0.28540996
0.10858452 0.27283829 -0.091163427
0.13536796 -0.072045788 -0.25776452
0.24487928 -0.076936558 0.013234556
-0.22980276 -0.10117886 0.088706136
-0.075308919 0.17461486 -0.2119664
0.17117 -0.16735718 0.21305048
0.13291171 0.029637292 -0.26881415
-0.12727284 -0.28649348 0.041031063
0.25302351 -0.15095529 0.017271876
0.21263391 0.1566325 0.14273798
-0.046341211 0.22721978 0.14986175
-0.073106796 0.061338142 0.26451713
0.1129456 -0.11874154 -0.23781449
0.25977173 -0.16199318 -0.10237446
-0.2357218 -0.038136944 0.063158154
-0.069319755 0.22823559 0.14355767
-0.23748747 0.14719857 0.20513457
0.22208154 0.12275739 0.020281434
-0.058319122 -0.031113356 0.27174777
0.2177476 0.14618231 0.057172716
0.26385146 -0.24494086 -0.02302748
0.23923481 0.034020379 -0.26451871
0.21521188 0.16145499 0.074924767
-0.2280027 -0.017880127 -0.15411615
0.23445177 -0.007498458 -0.26310638
-0.0048410296 -0.20364858 -0.19016907
0.12780853 0.16599606 0.2401706
0.1462179 -0.14884064 -0.21544674
0.25438517 -0.16861685 0.030874014
-0.22132841 -0.16893569 0.070254743
-0.097742885 0.15731917 -0.22307375
-0.21224439 -0.19456564 -0.0644629
-0.084162325 -0.22062965 0.1728605
-0.23043063 0.25154436 0.00068211555
0.23398469 0.035192594 -0.024236202
-0.12362936 -0.16880029 -0.23673791
-0.021661043 -0.23370779 -0.15281782
-0.20881498 -0.25189957 0.0012243986
0.21543357 0.16307969 0.066134632
-0.0070308149 0.18871056 -0.20299837
-0.043745965 -0.077016339 -0.26887834
-0.18118519 0.21916409 -0.14802033
-0.1772739 0.093314961 0.2443459
-0.011183411 0.063920751 -0.26932019
-0.14492512 0.21087535 0.15297216
0.17341688 -0.20953736 -0.1470691
0.03530407 -0.26828626 0.048046112
-0.2275835 -0.15326026 0.1678459
0.033882737 -0.27009973 0.039319813
-0.13328198 0.25717187 0.057137251
-0.20218858 0.23371775 -0.11403206
-0.24623492 0.025472298 0.13605314
0.13808525 -0.24368311 0.10361642
-0.22545746 0.23482497 0.086968124
-0.18411034 -0.2929076 -0.068386346
0.044257104 -0.20057157 0.18526757
0.26636866 -0.23458381 -0.068206549
0.12617639 0.22734691 0.18589681
0.029745668 -0.2683726 -0.059875876
-0.17072907 0.15255614 -0.22407877
0.22296627 0.047353789 0.18545496
-0.13293618 0.14320187 -0.23162085
-0.10747689 -0.17341359 -0.23051241
-0.25762823 0.18276693 -0.0010327697
0.22576915 0.021348625 0.18814349
-0.0036343336 -0.27608919 -0.021299779
0.21799023 0.20519857 -0.092423439
-0.022515595 0.2762475 -0.0072616935
-0.13420215 0.24797361 0.082975507
-0.22941366 0.0047525913 -0.17880407
-0.15246466 -0.29484463 0.010979831
0.24079713 0.023510709 -0.14370304
-0.1822938 -0.2273484 -0.19515616
-0.0060828924 -0.044295803 -0.27238572
-0.085027426 0.13237764 -0.24047661
-0.2322118 -0.029928938 -0.033187211
0.21938625 -0.24459229 0.072112679
-0.23329303 -0.10638581 0.17728174
0.25927117 -0.16618462 -0.081246942
0.12155907 0.1827959 -0.21243826
0.21930464 0.08318384 0.17740029
-0.21484771 0.16562159 0.19264358
-0.20621166 -0.28941691 0.068617105
0.20478123 0.28748894 -0.0066312551
-0.036100894 -0.26019064 -0.10727668
0.18962069 -0.22392987 0.13481873
-0.22813544 -0.064257205 -0.037817955
0.1809431 -0.25655249 0.0037817359
-0.12153819 -0.098562211 -0.27010477
0.20773372 0.21081965 0.11670506
0.051541433 0.27549011 -0.062577367
0.2223535 0.093662933 0.085521817
-0.098245829 0.20109351 0.17702144
-0.22866198 -0.027425274 -0.11644763
0.18175015 -0.1663416 -0.19548413
-0.22156641 -0.11733944 -0.050749719
-0.23026589 -0.087543935 0.065424979
-0.067397267 0.17300065 -0.21331063
0.2244174 0.18953352 -0.19377756
0.030205309 -0.13120171 -0.24012655
0.25476202 -0.099097043 -0.14732504
0.090852171 -0.18135478 0.20360702
-0.20584834 -0.24638985 -0.076714247
0.038768262 0.2107866 -0.18127778
-0.042274415 -0.14724758 -0.23971471
-0.26384601 0.19944306 0.14465773
0.23937207 -0.21094544 0.15236801
-0.21339169 -0.13366011 -0.18847448
0.20048536 -0.25509143 0.014591455
-0.019572258 0.21213968 -0.1747846
0.20133589 0.2141989 0.2103126
-0.19413811 0.043879583 -0.27754644
0.24023318 -0.066368967 0.088351429
-0.22004345 -0.078293949 -0.17932951
0.024799854 -0.20884892 -0.17927408
-0.23081091 0.024070963 -0.19568443
0.21842334 0.17054461 -0.017088592
0.20362233 0.005200848 0.2843408
0.21511589 -0.075621724 0.26649511
0.19475809 0.16332082 0.24810106
-0.22115281 0.15466537 0.20108825
0.029713035 0.18574603 -0.20760259
-0.22306469 0.078942701 -0.26538062
-0.23602727 0.097503915 0.23651159
0.059633702 -0.11381871 -0.24545607
-0.027074158 -0.27931836 -0.014440536
0.01680249 0.26462412 0.090902269
0.081528187 -0.23864122 -0.1239669
-0.040520042 -0.014594346 -0.27874267
0.12129144 -0.24208187 0.11005712
-0.2516987 0.081690773 0.11729991
0.21906811 0.20246257 -0.10915479
-0.23463121 -0.065096378 0.2625199
0.10865408 0.28940707 0.020284534
0.24678594 -0.014417976 -0.18108574
-0.2316834 -0.048701078 0.0012381673
-0.17399636 -0.29613551 0.015919626
0.096427381 0.29012847 -0.0084354281
-0.20843333 -0.22188434 -0.080470145
-0.064197779 0.11029975 0.24752641
0.085976541 -0.25853038 0.071607888
-0.25340381 0.13650213 0.02031064
-0.12454021 -0.22388473 0.17249644
-0.10611978 0.14154409 0.22851509
-0.015662819 0.27340126 0.041617632
-0.17057362 0.18024664 -0.19900239
0.1483687 -0.25663227 0.047643423
0.02791208 0.27364999 -0.059374511
-0.21289983 -0.13271032 -0.20148739
-0.2640129 0.18873097 0.1231218
0.024188668 -0.019487575 -0.27493048
0.069042102 -0.22751936 -0.14278907
0.25879291 -0.14668226 -0.11854705
-0.16233203 0.24606816 0.078094661
-0.068492085 0.27156448 -0.015971839
0.25305125 -0.07197845 -0.17646769
-0.20582849 -0.22364719 -0.13276267
0.1120757 0.012310237 -0.27095351
-0.21829036 -0.094369128 -0.17811355
0.24653554 -0.12866381 0.10374218
-0.16103247 0.1603037 -0.21909249
0.23641357 -0.063375384 0.16403109
-0.18084213 -0.18656167 -0.2297188
0.091771036 0.27385646 -0.085923761
-0.26509789 0.20811696 0.099290431
0.09336254 -0.12244211 -0.23800477
0.23416658 0.076598659 -0.1294466
0.0086702704 0.0018664747 -0.27561811
0.25279 -0.13877583 -0.0074385405
-0.23457906 -0.12253744 0.24472737
-0.10596552 -0.27798146 -0.082239091
-0.23358551 -0.0094117671 -0.053509533
0.032806396 -0.11533234 -0.24740577
0.11071374 -0.26384327 -0.007676959
-0.23633769 0.024852142 -0.077498198
-0.18418005 0.25850964 -0.023417473
-0.21864471 -0.21995683 0.13671041
0.25521171 -0.12690526 -0.089091986
0.14991572 -0.038680747 0.27888775
0.073811084 0.052154705 0.27601004
-0.053850085 0.24988936 0.1069544
0.23733738 0.080101773 -0.20691532
-0.1157929 0.25381851 0.073085666
0.25545663 -0.15244409 -0.031958938
0.11938325 0.29171425 0.0060142875
0.23038791 -0.066937879 0.26965123
-0.17441884 -0.22211906 0.1787535
-0.22035399 -0.13959877 -0.022661448
-0.24695745 0.047592714 0.097658157
0.25696874 -0.19299376 0.034346581
0.22890989 0.098812923 -0.069543183
0.21340753 0.095525876 0.27536243
-0.013338119 -0.034691736 0.27313697
0.24157348 -0.25065249 0.018967688
-0.22220275 -0.075544998 -0.13912955
-0.24194416 -0.0083969086 0.12564123
-0.12178949 -0.2879028 -0.046653271
-0.20132571 -0.27500761 -0.10500675
0.20193098 0.096176341 0.27645916
-0.0049307644 0.10697652 0.25500053
-0.068864167 -0.27417275 0.073822916
0.22896557 -0.0060753971 0.18575031
-0.10383418 0.17421661 0.20107561
0.074017659 -0.14060572 -0.23130134
0.22248659 0.086873218 0.099234164
0.15013741 0.29108727 0.062312067
-0.22932014 -0.075480297 0.015372157
-0.23202905 -0.049689636 0.011165559
0.082971349 0.25629503 0.13465846
-0.23987213 -0.057458416 0.262927
0.22518463 0.12275155 -0.047134817
-0.17801288 0.22402139 -0.13857579
0.15654263 0.051199183 0.28170627
0.0035600662 0.20529474 -0.18467081
0.23854429 -0.12234116 -0.2236107
0.23880526 -0.024754122 0.017611444
-0.22039899 -0.050879076 -0.23864663
0.066648304 -0.15245192 0.22700286
0.057712555 0.075694486 0.27060467
0.2547375 -0.18601404 0.065762818
0.22542249 0.16236846 -0.1491861
0.25347739 -0.24509221 -0.037146568
0.2332156 -0.03670533 0.16830206
0.24788503 -0.11776982 0.047776639
0.026929736 0.14554842 -0.23493487
-0.25028846 0.22497021 -0.12313524
0.23897383 -0.10841252 0.21853459
-0.1149784 0.0020011514 0.27225208
0.031228781 0.25636941 0.11967605
0.016795635 -0.26950279 -0.061402917
-0.11890048 -0.18349282 -0.22354195
-0.15825883 0.23001407 -0.12987795
-0.23862472 -0.0022172481 0.038397551
-0.20514783 0.18925716 -0.18564022
0.17044812 0.25211608 -0.14449164
-0.1876595 -0.2623266 0.1258499
0.0051342845 0.27802926 0.011864901
-0.20566565 -0.19597423 -0.20397484
0.18395287 -0.1796298 -0.18384391
-0.22539482 -0.090016574 -0.034376562
0.14313139 -0.2150351 0.16015714
0.07386291 0.17052479 -0.21934187
-0.23030153 0.015458658 -0.18569267
-0.13477618 0.16647212 -0.21569228
0.21161969 0.12020476 0.25386047
-0.18749729 -0.17893404 0.21675277
-0.22753146 -0.16428663 0.19367886
0.086639553 -0.23461053 -0.12876508
-0.1727632 0.2386872 -0.10925236
0.054606855 0.2650857 0.10343498
0.049811527 0.19695045 -0.19824654
-0.036019653 -0.27448416 0.054342806
-0.0099831522 -0.13900185 0.23853254
0.24225363 0.033004686 -0.19857013
-0.12982231 0.24590506 0.090465963
0.10027921 0.23073061 -0.16335464
0.25443152 -0.14977911 -0.016200602
-0.22935107 -0.15947114 0.2214427
-0.23344329 -0.022680953 -0.024151146
0.22980395 0.037110135 0.061922431
-0.053385317 0.2674548 -0.047643512
0.26477495 -0.23796166 -0.060331345
0.17886762 -0.14350578 0.22965509
0.21186742 0.22118513 0.0015305281
0.25671822 -0.17475793 -0.0048055649
0.096429229 -0.25182265 -0.082547486
0.10052666 -0.12912792 0.24187016
-0.23466113 -0.00079010427 -0.051223099
-0.23699513 -0.06706129 0.16156137
0.24977797 -0.090667143 -0.059636563
0.23987985 0.052126691 -0.19375047
-0.19144979 -0.11555301 -0.26960894
0.22257134 0.12857203 -0.0045819879
-0.25523207 0.17786463 -0.041112602
0.17922498 -0.24708758 -0.065696299
0.0060193539 -0.27527159 0.027372777
-0.19109872 -0.23073643 0.17017376
0.22911921 0.009680137 0.14388168
0.073282376 0.060218558 0.27449101
-0.15222058 -0.29108495 -0.051309943
-0.2214646 -0.19883741 0.14633954
-0.14698872 -0.16020067 -0.24397847
-0.14521965 0.26025575 0.016393125
0.21963507 0.13224258 0.050247252
-0.25247493 0.056516692 0.19572926
0.24397177 -0.071183592 0.018886149
0.041612551 -0.24586661 -0.1195741
-0.24129519 -0.016482159 0.1313116
-0.21133852 -0.1548188 -0.18134812
0.19375226 -0.24352457 -0.07051456
-0.23628953 0.25254732 -0.026328206
0.22936001 0.13237162 -0.24367517
-0.25251958 0.20304771 -0.16164035
0.20957005 0.27200019 -0.072815001
-0.25068882 0.049386218 0.17435575
-0.049765021 -0.20800564 0.18458837
0.22663589 0.04885982 0.10203075
0.13616201 0.26788729 -0.10653672
-0.23326299 0.053384617 -0.21408749
-0.22065446 -0.10601592 -0.098259449
0.024719507 -0.19191144 -0.19597813
-0.20776495 0.15984522 0.19857311
0.18465751 0.068081722 -0.26386243
-0.22597858 -0.097299963 -0.0038808584
0.26211336 -0.22944058 0.011683762
0.13303293 -0.15303288 -0.21374476
-0.24350885 0.0087137669 0.11779702
-0.25222966 0.091827586 0.10404879
-0.25399354 0.046500936 0.25322354
-0.0040902197 -0.21508178 0.17253125
0.14387259 0.23964144 -0.15670675
-0.02986908 -0.01722537 0.27389914
-0.13413426 -0.21057802 0.18872911
0.23556395 0.020386577 -0.022345483
-0.23542151 0.029774353 -0.10944384
0.069250584 -0.18993092 -0.1913451
0.18576217 0.16279261 0.24745709
-0.092525095 0.068298236 -0.26829723
0.020887911 -0.13950673 0.23723924
-0.2434493 0.078644052 -0.05450964
-0.1945053 0.014167532 -0.28219712
0.23972388 0.041934207 -0.16543558
0.2645303 -0.19934851 -0.11442631
-0.030256182 0.21293424 0.17404795
-0.25595227 0.17728461 -0.024044514
0.097064614 0.22523971 0.18285412
-0.22576407 -0.14307433 0.10339981
0.25495225 -0.11827248 -0.10456517
0.22886787 0.020184681 0.12365448
0.24978897 -0.1715844 0.1380071
0.12264486 -0.18861067 -0.18489105
0.00079977512 0.24563049 0.13294101
-0.18380594 -0.0040455908 -0.28323475
-0.13903093 -0.27826661 -0.093538553
-0.22553882 -0.035387561 -0.16484183
0.1676075 -0.15187368 0.22429365
0.24942847 -0.16592042 0.13198948
-0.16508472 -0.14388791 -0.25352716
-0.22227159 -0.10549594 -0.064390302
0.023393631 -0.27220583 -0.031354904
0.251663 -0.18559638 0.13155049
0.24763617 -0.0080413669 -0.21515542
0.058170512 -0.26658356 -0.052690893
0.16320713 -0.073262975 -0.25441706
-0.25747755 0.087261513 0.22925061
-0.23193404 -0.079747751 0.082609177
-0.20550922 0.22134303 0.12500477
0.22447538 0.042527035 0.16446537
0.049371839 -0.041516975 -0.26919675
0.099618733 -0.24788937 0.10209978
-0.19201568 -0.14679149 -0.25482693
-0.24188337 0.060879782 -0.045094907
-0.22700539 -0.021116003 -0.1678749
-0.24294731 -0.024037555 0.18569022
0.08667925 -0.12856257 0.24268138
0.028957158 -0.059334576 -0.26728052
0.13820232 0.289235 -0.037679672
0.041628122 -0.23294128 -0.14064676
0.24008083 -0.042749047 0.033899784
-0.14311013 -0.14675492 0.23733699
0.22945449 -0.00058142841 0.16169083
0.21644022 0.11554115 0.16051489
0.24587333 0.0046359301 -0.20785093
-0.0043580532 -0.25632873 0.10405517
-0.20372227 0.2368433 0.089185655
-0.2255843 -0.018236235 -0.20579773
0.011565685 -0.25676578 0.10018218
0.061714306 -0.058878273 0.2714141
0.22426696 0.10333936 0.020278573
-0.11798769 0.048934683 0.26380461
0.20010701 -0.16362244 -0.19519624
0.097244754 0.21507408 -0.18124488
0.25609329 -0.19380042 0.055342555
0.17135541 0.048534229 -0.26589689
-0.10167494 0.11829983 0.23999822
-0.24333987 0.11866136 -0.1547493
0.18410794 0.17973925 0.23724222
-0.23474792 -0.0065980107 -0.035133302
-0.2414135 -0.05791007 0.23519355
-0.10783276 0.24353819 0.1052556
-0.14790672 0.13303919 0.22839814
0.12382096 -0.12442614 0.2443611
0.21394628 0.18251331 0.050928771
-0.1260564 0.1793047 0.19358373
0.11178166 -0.25928918 0.053609967
-0.25088683 0.036193445 0.21092135
0.086699784 -0.10266168 -0.24806324
0.046864301 -0.19674131 -0.18871737
-0.088326663 -0.28297693 0.038285255
-0.20810789 -0.028052092 0.26642418
-0.24234828 0.088549152 -0.10265824
-0.22426268 -0.038152114 -0.18581277
0.11721814 0.069378003 0.27573746
0.10039943 0.13863839 -0.24190652
-0.21812597 -0.14677724 -0.053521454
-0.2213482 -0.19097464 0.12458199
0.22247578 0.19561158 -0.16644964
-0.21675053 -0.11669587 -0.15697527
0.21679452 0.078912511 0.24239081
-0.22569761 -0.13366283 0.078938365
0.24147575 -0.041673169 0.0009573102
0.039501786 -0.22596902 0.1562326
0.2584956 -0.21689439 0.059616506
0.17473164 0.29428583 0.057660162
0.16435012 0.25817347 -0.13186485
0.091229826 -0.24408555 -0.10646906
-0.17884615 -0.17005898 -0.24246481
0.24560118 -0.08711493 0.022438645
0.12752396 -0.067986369 -0.25911167
0.26235747 -0.2142338 -0.030808747
0.19281732 0.06581001 -0.2637383
-0.10836607 0.22733925 0.1366657
0.2175367 0.20078216 -0.071767807
-0.1706883 -0.21569644 -0.20344144
-0.25581989 0.11976717 0.11373937
-0.072046906 -0.17889653 0.21322942
0.10025188 -0.26626328 0.0085241795
-0.076130331 -0.020906508 0.27189034
-0.21757343 0.22433831 -0.13054252
-0.09948808 -0.15619609 0.22955632
-0.26597461 0.21597119 0.099135876
-0.14217409 -0.23392415 -0.17780438
0.25882694 -0.12455067 -0.17340928
0.1148373 -0.25075343 0.093343675
-0.21020624 0.036600068 0.25992072
0.21424469 0.20886739 -0.020004392
-0.22880051 0.016510829 -0.22088316
0.13591672 -0.0539933 -0.26112634
-0.061525673 0.11044495 -0.25325409
-0.18345675 -0.2418367 0.15666318
0.20481053 0.24323352 -0.15768769
0.20906623 0.25651705 -0.02400285
-0.22378436 -0.067518279 -0.12439245
-0.11440432 0.18606775 0.18947262
-0.24255887 0.096037343 -0.11639366
0.21618043 0.093001381 0.22128087
0.21912304 0.06945245 0.21492672
0.13721842 -0.25871173 0.042811275
-0.15935457 -0.2286481 0.16991442
0.24167387 0.0016717762 -0.10934764
0.16497751 -0.25398067 0.052506089
-0.15214175 -0.25542521 -0.14857748
0.097331211 -0.06785363 0.26847988
-0.21337965 -0.23787208 0.066111088
0.10206209 0.27827251 -0.075458586
0.26197538 -0.15360904 -0.17076328
0.19853556 -0.19213958 0.18201679
-0.20352444 0.25390792 -0.037007749
0.18159299 -0.23889448 0.10539609
-0.24051026 0.051129982 -0.05108887
0.055790171 -0.1753445 0.21172231
-0.24457887 0.1369047 -0.1724408
-0.25558135 0.17172177 -0.018500865
0.21974915 0.13556196 0.039650798
0.10079724 0.20370971 -0.19471642
0.1780348 -0.13435391 0.23592293
-0.12053537 0.22328164 -0.15082443
0.24109256 -0.0083938688 -0.072100312
-0.23310331 0.028398409 -0.15645453
0.2349997 -0.068030789 0.2061395
-0.18542796 -0.048754394 -0.28353232
0.18626431 0.2901445 -0.059034616
-0.047195762 -0.23588398 -0.15500882
-0.21519533 -0.11264575 0.25070906
-0.25267437 0.24318574 0.053207278
0.19624896 -0.09485963 0.25959849
-0.11269364 0.20749657 0.16466105
-0.11109272 0.01579468 -0.27897
0.078900427 0.24410908 -0.14498743
-0.1675373 0.21290107 0.14527398
0.15670584 -0.21610995 -0.14100358
-0.25295439 0.078591004 0.15216553
-0.035946101 0.098598495 -0.25726357
-0.16405198 0.18553446 -0.19342422
-0.1015268 0.24849333 -0.10227722
-0.21820608 -0.15711193 -0.026507556
0.22062936 0.13456778 0.022955239
-0.056496859 -0.220061 -0.1800102
-0.034565479 0.27439469 -0.0011485815
-0.22086135 -0.078043535 -0.16217059
0.20430209 0.23756067 0.12587994
-0.22943553 0.040284857 -0.26522258
0.049813271 0.23805313 0.1542691
-0.245101 -0.027366057 0.24062872
0.17842765 0.04315187 0.28464735
0.2347554 -0.22719891 -0.10195383
-0.058893353 0.20584346 -0.17876264
0.093122661 0.27720445 -0.076194942
0.23987754 0.034957305 -0.1517126
-0.14187384 0.25607008 -0.05918619
0.24088125 -0.0028595477 -0.26353091
-0.15977249 0.19683169 -0.1806916
0.096161932 -0.24484488 0.10903507
-0.20299274 0.050516292 -0.27526528
0.21899343 0.081085846 0.18929344
0.20141071 0.27008671 -0.11416191
-0.16884553 0.22678889 -0.13456735
0.24317712 0.048054591 -0.25544176
-0.17524281 0.24541415 0.075226724
0.20595643 0.25520104 0.046791494
0.019559801 0.25992984 0.10527033
0.0018649995 0.23070626 0.15490407
-0.21253404 -0.16366442 -0.13373721
0.068417042 -0.084239557 -0.25863242
-0.25194427 0.11371462 0.044321418
0.13788967 -0.24340625 -0.091312051
0.19702801 -0.13230902 0.23673379
-0.26102439 0.21419312 -0.0040863156
-0.20466805 -0.20543078 -0.2025255
0.2222175 0.17520036 -0.11092192
0.23006921 0.046913162 0.032185137
0.19890016 0.26219767 0.15039951
-0.20146653 0.18164562 0.18088347
0.12114522 0.090909317 -0.25896987
-0.22795966 -0.12719418 0.24550319
0.20553002 0.16042285 -0.23027974
-0.20519799 -0.26534179 -0.044499516
0.095154226 0.26849562 0.10858291
-0.25834331 0.10232292 0.21123111
-0.069546819 -0.19765146 0.19825906
0.2588028 -0.16632363 -0.070729494
-0.097326785 0.25823754 0.067274034
0.10314801 -0.084484428 -0.25506127
0.24038655 0.017863169 -0.12096965
-0.20001087 -0.15597153 0.23279965
0.21027237 0.16196091 0.18102354
0.21817511 -0.17153227 -0.18588865
-0.25451186 0.062661901 0.22496456
0.057962507 0.27862668 -0.049638331
0.077783003 -0.027427003 -0.26989347
0.16292296 -0.25690964 -0.019478559
-0.16266137 0.25851154 -0.035101533
-0.023280621 0.0059768558 0.27597207
0.24089077 -0.051703632 0.038198292
-0.21466759 -0.16787782 -0.077071935
0.22256505 0.13494475 -0.020029247
0.20934564 0.25692689 -0.14219949
0.097131267 -0.23312396 -0.12872779
-0.074616343 -0.22558513 0.16631114
-0.25483146 0.12675162 0.075178623
0.24725387 -0.16458863 0.17598695
-0.11814168 -0.075875804 -0.27405235
0.24467918 -0.048044875 -0.053071678
0.22004326 0.2232116 -0.18108621
0.24865732 -0.04843381 -0.13856551
0.0030758083 -0.1714538 0.2159965
0.16001222 0.15795894 0.24719161
-0.156362 0.25676817 0.045868874
-0.25246075 0.13273759 0.0090246201
-0.1204173 -0.26372549 -0.12810016
-0.2262322 -0.090438977 -0.015146494
-0.18346369 -0.13947901 -0.25744966
0.18732914 -0.25266623 -0.038448989
0.20657779 0.22695272 0.1023702
0.026068151 -0.10892582 -0.25111914
-0.23820999 0.20391403 -0.1658614
0.24995653 -0.15091282 0.083813727
-0.21791264 -0.1646845 -0.014365137
-0.19347933 -0.0078193694 -0.2838915
0.18661666 0.30020803 -0.0065152645
-0.079015762 -0.25802624 -0.12915424
0.097523287 0.074355736 -0.26495123
0.11514089 0.25951701 -0.11991084
-0.12737456 0.22090627 -0.15445676
0.22923507 0.071197703 -0.0090764761
0.19241801 -0.090398818 -0.24337175
0.2508097 -0.23954573 -0.060938627
-0.015675634 -0.20753907 0.18225145
-0.034845233 -0.27854612 -0.036906362
-0.1227532 -0.23548725 0.15889794
-0.052915514 0.025420859 -0.27605012
0.26327071 -0.20864139 -0.064329445
-0.22624829 -0.037063524 0.26504016
0.063219279 -0.27025554 0.0044656396
0.11622986 0.28984481 0.026201725
-0.11826178 -0.28813982 -0.037979245
0.021057636 0.21595587 -0.17379138
0.1213764 0.28970546 0.036085188
0.2283344 0.12406184 -0.11878377
0.20635784 0.18204598 0.21696895
-0.25554493 0.068413004 0.23335063
0.046337992 0.12544413 0.25132835
-0.19702962 0.10225143 0.23813581
0.25887439 -0.20258209 0.016384482
-0.18972906 -0.15755799 0.2314015
0.061149195 -0.048388854 0.2748251
0.22998188 -0.24816373 0.047648072
-0.10162181 0.2059157 0.16928828
0.027507752 -0.12038183 0.24953228
-0.26600716 0.22449 0.079009473
-0.024894804 -0.28077635 0.0085258484
-0.21666136 -0.18802848 0.015532196
0.21488541 0.097202078 0.23914903
-0.2098549 -0.19779904 0.2045728
-0.0482485 -0.0063538998 -0.27838045
0.24728274 0.0081199855 -0.24699789
-0.23425367 -0.032528624 0.017540932
-0.0053932369 0.0029524565 0.2763983
-0.15401641 -0.032120958 0.26811314
-0.2100769 -0.25587654 0.038373351
0.20959687 -0.1494621 -0.2059201
0.23590384 -0.24655683 0.052846551
0.067451417 -0.16339312 0.2195155
0.25790831 -0.12418239 -0.15434805
-0.21080354 -0.18577813 -0.11726245
-0.2267988 -0.04671967 -0.10975122
-0.19544598 0.1755055 -0.20239785
0.23775259 0.084286615 -0.22617167
0.18897772 -0.035478786 0.28046805
0.21533528 -0.22788112 0.1218586
0.21051864 0.020082429 0.28576958
-0.26346347 0.24131103 -0.017401278
-0.06955561 0.14702444 -0.23096198
0.23179939 0.13136329 -0.21193385
0.24783573 -0.14232619 0.10890055
-0.24598035 0.00022669137 0.19225889
-0.093417943 0.13024615 -0.24167249
-0.16052642 -0.29408363 0.019346833
-0.25220761 0.14067794 -0.015892982
0.21182102 0.2042004 0.044074953
-0.17394605 0.25644183 0.022873938
0.086216584 0.20132776 -0.19624633
-0.18682721 0.21881507 0.13260955
0.0097044706 0.075068012 0.26751649
-0.079607636 -0.052039161 -0.27586699
0.082550168 0.27717996 -0.070578068
-0.21727481 -0.079323247 0.2620436
0.20769608 0.26274383 -0.009457171
0.022828966 -0.19831666 -0.19078642
0.021027476 -0.17380419 0.2138415
-0.24969396 0.056188926 0.13610047
0.0078260303 -0.25722724 -0.099620432
-0.2052651 -0.23460765 -0.11819997
0.14672518 -0.24083693 -0.09538728
0.20688014 -0.2334827 -0.09428212
0.16207397 -0.17301378 0.20726216
-0.23202696 0.22598721 -0.12443978
-0.0896779 0.26775855 0.0021397471
-0.20614639 -0.2577109 -0.042552173
-0.20878708 -0.1893777 -0.15227753
-0.016656727 0.26419759 0.079860926
-0.1098108 -0.28858855 0.020568013
-0.064343154 0.053918496 0.26646709
-0.055275768 0.1875232 -0.20030183
0.1212474 -0.24427097 -0.094946921
0.14620435 0.28575683 0.078161418
0.06996493 0.2104045 -0.18435416
0.23202673 0.10173358 -0.14441469
0.083206549 0.086551145 0.2703082
0.13470063 0.14684559 -0.23736304
0.24288206 -0.12912537 0.18426156
-0.21234947 -0.21858655 -0.0034364462
0.24804924 -0.028791159 -0.17338806
0.13158494 0.16004886 -0.22826168
0.17490508 -0.015947104 -0.26552516
-0.021290064 0.094413593 0.25934058
0.226946 0.14580558 -0.14178756
-0.24319109 0.044967189 0.022235692
0.22221661 -0.017377898 -0.26210499
-0.004175514 0.089126363 0.26355451
-0.25089768 0.16433696 0.18862128
0.23592782 0.090271726 -0.20115581
-0.14185002 0.17785139 -0.20420334
0.2077219 0.2219175 0.089822114
0.19550875 -0.014551252 0.28248298
0.2322225 0.11386724 -0.17834148
-0.10695273 0.26255 0.045170546
0.21711732 0.10779245 0.16475087
-0.26050398 0.18770979 0.049369156
0.16361994 -0.15903452 0.21953201
-0.13695303 -0.29044849 0.025576115
0.11848915 0.019925341 0.2823382
0.23277926 -0.05676721 0.22684479
0.011443824 -0.073380843 0.26598513
-0.1047211 -0.14013854 0.24066961
0.22465222 0.16122989 -0.12966377
0.21285656 0.2129619 0.00014638901
-0.016605526 0.12527655 -0.24742344
-0.06313318 0.25942945 0.076406598
-0.15257213 -0.24601601 0.14921188
0.01893568 -0.22692388 -0.15417629
0.10405789 -0.24902 -0.087728739
-0.060371518 -0.1418176 0.23816097
