# .PCD v0.7 - Point Cloud Data file format
VERSION 0.7
FIELDS x y z
SIZE 4 4 4
TYPE F F F
COUNT 1 1 1
WIDTH 1325
HEIGHT 1
VIEWPOINT 0 0 0 1 0 0 0
POINTS 1325
DATA ascii
0.086576581 -0.13832426 -0.081530571
0.076570392 0.13465452 0.087383986
-0.010104895 0.14053345 -0.093955994
-0.075339317 -0.19706011 0.024475336
-0.1223464 -0.0042397976 -0.10353994
0.15342498 0.064880371 0.079368591
0.0050909519 -0.14662433 0.092203379
0.038054585 -0.012197018 -0.12332058
-0.1319021 -0.017562628 0.098930836
0.12116706 0.16243458 0.041152954
-0.12781322 -0.073127508 0.092385292
-0.212672 -0.029695272 -0.0090041161
-0.017515779 0.018535137 0.12532997
-0.10411096 -0.16301489 -0.056160212
-0.080992222 0.14800167 -0.075819969
-0.12129617 -0.013096333 -0.10336018
0.15783107 0.1388638 -0.025135279
0.04366374 0.12542582 -0.098575115
-0.0023875237 0.12777948 -0.10030532
0.17641521 0.099715233 -0.041342735
-0.010820866 0.057457685 0.12239051
0.18453658 0.098556042 -0.030816555
0.12911415 0.074359417 -0.091099739
0.10057414 0.18722343 0.019873619
0.15510869 0.0644207 -0.078288555
0.17799723 0.088247776 0.047660112
0.024785757 0.14829874 -0.08903265
0.070723295 0.19191551 0.03587532
0.18424189 -0.054005623 0.057570696
-0.1357857 -0.095011711 0.081103802
-0.11560571 -0.025672197 0.10563993
0.088964462 -0.10751534 0.095809937
0.13582599 0.015234709 -0.096983194
0.063780189 0.19215512 0.039897442
-0.18362361 -0.11062336 -0.015681505
-0.058252692 -0.10616899 -0.10368252
-0.063178539 -0.17321301 0.064651966
0.089719892 -0.058452368 -0.10934591
-0.21040738 -0.03682375 0.01589036
0.0016276836 0.1085763 0.10927939
0.042777538 0.050463915 0.12071013
-0.078555226 -0.19802237 0.013576269
0.061123013 0.0069935322 -0.12127137
-0.10979056 0.023149014 -0.10730219
-0.086177111 -0.1970613 -0.0050804615
-0.13798726 -0.15116572 0.039196014
0.094595909 0.17432523 0.04910326
-0.061000466 -0.001512289 -0.12118196
0.11547601 -0.064348221 -0.09997654
-0.1163063 0.061411381 -0.0995574
0.13222563 0.10291815 -0.078922033
0.10805809 -0.18213987 -0.017351627
-0.084923744 0.037529945 0.11408734
-0.18531585 -0.092201471 -0.034763813
0.15442073 -0.14628005 -0.01516223
-0.1711778 -0.064686298 0.067524195
0.033777356 0.15546918 -0.08400178
0.18441498 0.013722181 0.064159632
-0.0076432228 0.12337828 -0.10202169
0.20641029 -0.011062622 -0.035392523
-0.017231822 0.15863967 0.084015846
0.05980134 -0.090479136 0.10925603
-0.18873262 -0.098942995 0.018816233
0.10889637 0.066163063 0.10121775
-0.1875453 0.091450691 0.030360699
-0.010874391 -0.20014501 -0.043529272
0.18133247 0.012011051 0.066888809
0.063908935 -0.14644265 -0.084386826
-0.05153513 -0.084023714 0.11216235
-0.046642184 0.045999289 -0.11994052
0.15438056 -0.088253498 -0.07118845
-0.014372349 -0.18449306 0.063712835
-0.034996986 0.072555304 0.11698961
-0.053139091 0.17172122 -0.068311214
-0.094547987 0.19060278 0.0075163841
0.1527468 -0.12559581 -0.050186872
0.048774242 -0.19912958 0.036806583
0.19328213 0.043025255 -0.048983335
0.09295857 -0.11829352 0.090551615
0.091245532 -0.14145732 0.077456236
0.17808378 -0.087027073 -0.04938817
0.083210349 0.18779826 0.035008192
0.0068142414 0.17122793 0.075714111
0.0062977076 -0.18994617 0.061505556
-0.10310018 -0.1876266 0.011472464
0.13645518 0.15587926 -0.033674479
0.19448555 -0.051460743 0.043586969
0.16913569 -0.082250595 0.059808731
-0.20790106 0.052400827 -0.0039305687
0.084510207 0.10944319 0.096664429
-0.033499956 0.024055004 0.12353158
0.019254923 0.027419567 0.12426901
-0.084690928 0.19516778 -0.0078887939
0.039255738 0.17268634 0.070433617
-0.013283134 -0.013789415 -0.12559462
-0.18611079 -0.015838861 0.063066483
-0.18866372 -0.10123372 0.012231827
0.1098541 0.13216543 0.076025486
-0.1454699 0.015051603 -0.091335058
0.069123268 -0.14347696 -0.084477425
0.17971456 -0.091717958 -0.043036222
0.10632217 -0.14171886 -0.071913481
0.10168064 0.094986677 -0.095493078
-0.04392755 -0.18088174 -0.06316185
0.022691488 -0.056361437 -0.12200189
-0.20787168 -0.0074596405 -0.030149698
0.17933738 0.069790602 -0.0563941
0.15817463 0.1440556 -0.0061862469
-0.18217987 -0.10868549 -0.024314404
-0.21312654 0.021911383 0.0070183277
0.20810735 0.0067081451 0.030332327
0.08717072 -0.18934608 0.030614138
0.20921957 -0.024900198 0.027456522
0.03435421 0.13779044 -0.093293667
-0.014953732 -0.20449853 -0.036258698
-0.17746019 0.055958509 -0.063715458
-0.039091587 0.20588374 -0.020982742
-0.11487305 0.0029909611 0.10804939
-0.041172743 -0.1721282 -0.070984364
0.19168496 0.02272296 -0.056973219
0.10633802 0.051412344 -0.10533857
0.059550643 0.15479302 -0.080833435
0.03719461 0.050070047 -0.12081218
0.041463852 0.094110966 0.11046553
0.20906854 0.0096170902 -0.028100252
-0.099479556 -0.043677807 -0.10970378
-0.15052283 -0.063087225 -0.081777811
0.17239428 -0.026483297 -0.07515645
-0.18594408 -0.092936993 0.034143686
-0.081841588 0.17284727 -0.054997206
-0.18035609 -0.11924815 -0.0019991398
0.17139864 -0.1101861 -0.038494349
-0.13346589 0.068852425 0.090729713
-0.128582 -0.06284833 0.094383001
0.17819548 0.072818756 0.056288719
0.18596601 0.049124956 -0.056643724
-0.087158203 0.17635965 0.047970533
-0.10570002 0.00023031235 0.11035419
0.18852723 0.023833275 -0.060387135
-0.031417251 -0.18277478 -0.063099861
0.077448249 0.20010543 0.00048780441
-0.08603704 -0.11762452 -0.092787743
-0.11339319 -0.15283012 0.060078382
0.052662015 -0.15958619 0.078751326
-0.21008599 0.0072925091 0.026063919
0.20422244 0.02731204 0.035578966
0.038595796 0.030290365 -0.12273908
0.089376092 -0.19098139 -0.019623995
0.15288508 -0.088904619 0.072090864
0.09015739 0.14875793 -0.073050976
-0.1264447 -0.10429144 0.082922697
0.17364562 0.083351851 0.056599617
0.031900883 0.088544369 0.11384058
0.090735197 0.15327406 0.070503235
0.0064339638 0.19092107 0.057505846
-0.047473788 0.015273094 -0.12202001
0.045541048 -0.1877799 0.053804398
-0.066704273 -0.19988084 0.024591923
-0.0067161322 -0.032232761 -0.12412977
-0.084176779 -0.19271421 -0.026844978
-0.085539103 0.14795399 -0.074143171
-0.093708634 -0.043288708 0.11156631
0.18025541 -0.051826715 0.063816309
-0.1904918 -0.05640769 0.048052549
-0.11567867 0.013634443 0.10747743
-0.025400043 0.058941603 0.1212368
-0.078391433 0.057627201 0.11318803
-0.16018057 0.12946701 0.037063599
-0.030620098 -0.21048236 0.015584946
0.15964222 -0.070305586 0.073487759
-0.16741484 0.023979902 -0.078726053
0.14147377 0.13604069 -0.051190138
0.11181295 0.038508177 -0.10599113
0.03532064 0.045402288 0.12171698
-0.051140666 -0.20780516 -0.0094847679
-0.14843029 -0.042523861 -0.088542938
-0.07836175 0.18804169 -0.037787199
0.041025877 -0.090318441 0.11232376
-0.17645812 -0.11307716 0.029375076
-0.047151327 0.10520673 0.10685778
0.18951201 0.099471331 0.010033131
0.20248997 4.529953e-05 0.043087244
0.12071311 0.013354301 0.10398841
0.044718862 -0.18203115 -0.062256336
-0.0041624308 -0.16005945 0.085947275
0.16871893 0.092009783 -0.057455778
-0.079879522 -0.14125562 0.082416773
0.035288334 0.19436693 -0.047775507
0.018983126 -0.19043279 -0.057569027
-0.14079702 0.10063124 0.075039864
0.14517772 -0.11101961 0.066027403
0.11667371 0.17256474 -0.02811265
0.16227472 0.13882494 -0.01114583
0.11162424 0.015876055 -0.10783195
0.19347012 0.017417192 -0.055720329
-0.094917774 -0.17255783 0.051305771
-0.068177462 -0.12980914 0.093679428
-0.026405215 0.0072317123 -0.12455106
-0.068176627 0.021039248 0.12006712
-0.067342758 -0.0020105839 -0.11953783
0.20503938 -0.0063378811 0.038367271
-0.039781451 -0.15447593 0.084489107
-0.029037356 0.20717359 -0.024588585
0.039880514 0.0029258728 -0.12384033
-0.061687231 -0.15811467 -0.078853846
0.088760972 0.01627636 0.11432266
0.13632607 -0.049286366 0.09433341
0.029746056 -0.11904669 -0.10343218
0.069839001 -0.1895566 0.04303503
0.17298162 0.005903244 0.074342728
0.13974273 -0.14941359 -0.037079573
-0.010143161 -0.0728755 -0.11827016
-0.15764606 -0.056961298 -0.078762293
0.046177506 -0.20307159 0.031138659
0.095710874 -0.14549971 -0.073263884
-0.072271705 -0.15104079 0.079302549
-0.022233486 -0.17720366 -0.069002628
0.1407336 0.075703621 -0.084608555
-0.13420963 0.11403084 -0.070209503
0.13865888 -0.14851069 0.038824797
-0.10686183 0.011354208 -0.10938644
0.067883611 0.203228 0.00067925453
0.16879117 -0.010574341 0.078616381
0.10408401 -0.031467676 0.10851717
-0.077494621 0.041883469 -0.11524868
-0.0028425455 0.21021605 0.022500992
0.14880002 -0.031263351 -0.08904624
-0.10804594 0.18331027 -0.0081968307
-0.13642001 -0.12371373 0.065058708
0.16276789 -0.12781096 0.034809589
0.093754053 0.17536163 -0.047998905
0.069935799 -0.20217061 0.013021946
-0.044977188 0.078715086 0.11418319
-0.16270304 0.041853905 -0.077619314
0.18466604 0.063946724 -0.052532434
0.094713569 -0.10987902 0.093470097
0.16005373 -0.016494989 -0.084026337
0.05525434 0.1683259 0.072170019
-0.035532713 0.019118309 0.12356234
0.1234082 -0.17305017 0.018111706
0.072592735 -0.047303915 0.11604118
-0.20302397 0.016789675 0.042388916
-0.15815002 -0.11791825 0.052406788
-0.03276062 -0.1789422 0.066278219
-0.18412334 -0.02568841 0.064343214
0.13652813 0.060926914 -0.091150999
0.077388883 -0.1414094 -0.082828045
0.063375831 0.066874504 -0.11358261
0.066026211 -0.062027454 -0.11406279
0.20321167 -0.0083405972 -0.043048143
0.14438593 -0.13565302 -0.047695637
-0.016997814 0.19028831 0.057492733
-0.087742329 -0.13715076 -0.081602573
-0.064510465 -0.16266775 0.074307919
-0.17201066 0.12166786 0.022081137
-0.058974981 -0.06938076 -0.11419249
0.062188745 0.15911984 -0.077371836
-0.00081992149 0.095108747 -0.11213517
0.15544224 -0.00069689751 -0.087585449
-0.035451889 -0.21339321 4.9352646e-05
-0.049281716 0.076300621 -0.11329961
-0.072382808 0.14897466 -0.078388453
0.12768984 -0.032692432 -0.10026836
-0.097693205 -0.06689024 -0.10533357
-0.20413864 0.040064573 -0.030716658
-0.074237466 0.17085099 -0.062614202
0.01475203 -0.1638813 -0.080613136
0.17902827 -0.10395598 -0.032468319
0.21065104 0.013827562 0.023807764
0.023610115 0.081143379 0.11630464
-0.034884691 -0.21159649 -0.0090279579
-0.12213695 0.12518167 0.072190046
-0.057928801 0.18485308 -0.052870512
-0.13377285 -0.079102039 -0.088047981
-0.18224269 -0.1155951 0.0012845993
0.13442504 0.15791392 0.032739401
0.14234841 0.054175854 0.090343237
-0.15531176 0.0028407574 -0.086880922
0.098911643 -0.10936856 -0.092567921
-0.089258552 -0.0484972 -0.11108994
0.12445688 -0.1288054 0.06851387
-0.018337131 0.012531519 -0.1251061
0.16504931 0.06634593 0.070715904
0.10004926 0.17452121 -0.046041965
0.036928654 -0.17375898 0.069979668
-0.01341784 -0.079242468 0.11690378
-0.0043246746 -0.04121995 -0.12337542
0.10821354 0.13831949 0.072892666
-0.17180175 0.12581992 -0.0091347694
-0.097138524 0.18704629 -0.015412569
0.076197743 0.041988373 0.11506844
0.19955695 -0.035101891 -0.041775465
0.044760227 0.11818385 0.10231423
0.1242938 -0.078538895 0.091361284
0.10848045 0.020859718 -0.10886097
0.20090246 0.077923059 0.001819849
0.2131449 -0.015812874 0.012770176
0.033492208 -0.043106556 0.12248683
0.066250205 -0.03228426 0.11970448
-0.063396811 -0.078926325 0.11183381
-0.21049893 0.028571844 0.021786928
-0.11589336 -0.082502842 0.095042467
-0.16866654 0.13194823 0.0063056946
0.16618598 -0.10058236 0.053717613
0.0026115179 -0.13207793 0.099066257
-0.027319312 -0.097637892 0.11180997
0.21124661 -0.013310909 0.020877838
0.17437279 0.011941195 -0.073009491
0.15573347 -0.11076736 0.058748484
0.20931816 0.047021627 0.0043973923
0.19525397 -0.092022657 0.0043740273
-0.016256571 0.050346851 -0.12321305
0.026761174 -0.21321654 0.0038859844
-0.072517633 -0.045155048 -0.11507154
0.027865767 -0.19969082 0.041925907
-0.10219896 -0.16648769 0.053994179
0.18187511 0.027090311 -0.06593895
0.20242298 0.047435999 0.033721209
-0.094674706 -0.094376087 -0.098552465
-0.097879529 0.10680985 -0.092989922
-0.19929886 0.049042702 -0.035945415
0.18152618 0.077744722 -0.049194098
0.1487546 -0.0097694397 -0.090548038
0.14377224 -0.121526 0.060636997
0.21240211 -0.01265049 0.016351223
0.061582446 -0.0020461082 -0.12123513
-0.059844613 0.19464397 -0.038453341
0.058916092 0.090083361 -0.10840845
-0.15903062 0.060392857 0.076639652
-0.019157767 0.10364747 -0.10983849
-0.069803238 0.14912772 0.080128431
0.049298525 0.19931698 0.036780596
0.10684252 0.14920259 0.066761017
-0.17736661 0.079717636 -0.05226016
0.21329796 0.027935028 0.0056688786
0.20029151 -0.069544077 0.020684242
-0.098518372 -0.14707422 -0.071357012
0.12076938 -0.03758502 0.10210443
-0.027361393 -0.1907692 -0.055900812
-0.15690058 -0.1077354 -0.059368134
0.16735244 0.053930998 0.072564363
0.1761508 -0.070846558 0.058653116
-0.15872252 0.14429426 0.0054764748
-0.19851285 -0.0020580292 0.050428391
-0.089715481 -0.11507559 0.092734337
0.11116493 0.029788017 -0.10695982
-0.18967414 -0.093652487 0.025964975
-0.17744517 -0.086369276 -0.049795389
0.17642903 0.083348036 0.052915812
0.030943513 -0.0015897751 0.12479687
0.105847 0.17411518 0.040725231
0.17635763 -0.11747742 -0.01752162
-0.074391127 -0.10936499 -0.099943161
0.13258314 -0.16240358 -0.027171135
0.091471195 0.097431183 -0.098368645
0.067820907 -0.091717482 0.10723925
0.18556261 0.10205865 0.025659561
-0.20830739 0.034346104 -0.024813414
0.030501127 0.16874337 0.074891567
0.0031552315 -0.03295064 0.12481308
-0.1878922 -0.082020283 -0.038320541
-0.12338448 -0.12049675 -0.07646966
0.17344415 -0.024346828 0.074167013
-0.1592738 -0.14289308 -0.010529757
-0.048601031 -0.15762115 0.081614733
-0.019548893 0.13710165 -0.094973326
-0.16563749 -0.086117029 0.064352751
0.16253161 0.040508747 0.078603029
0.039477587 -0.19636631 -0.043563366
-0.10156655 -0.011628866 0.11129737
0.10787547 -0.17823768 0.032305956
-0.11689949 0.14936996 -0.059740067
0.11635756 -0.18132114 -0.0039401054
0.15499079 -0.14116168 -0.030227184
-0.018358707 -0.089511156 0.11425447
0.0007545948 0.17458558 0.073598385
0.020415187 -0.14198518 0.093425989
-0.19928259 -0.037914038 0.041635036
0.12468398 -0.16989708 0.025501728
-0.1684078 0.023787975 0.079001665
0.05398345 -0.17798233 -0.06466651
0.19318235 0.09091568 0.012754679
-0.12771666 0.096638441 0.084212065
-0.20095921 0.060750246 -0.023887873
-0.10881078 -0.014682055 0.10943055
-0.16325182 -0.1327455 0.025754452
-0.024711132 0.17193198 -0.072032452
0.012072682 -0.05465126 -0.12288928
-0.010279536 0.21203566 -0.014897108
0.088452339 -0.10488248 -0.097132444
0.092672348 -0.19049907 0.01456666
0.13333058 0.11249113 0.073580742
-0.18690777 0.012149096 -0.060616255
0.099182129 -0.17354441 0.044111013
-0.12704837 0.17364311 -9.727478e-05
-0.16726393 -0.11189699 0.04460454
0.014453411 0.20317888 0.037486315
-0.20457006 -0.056132317 -0.019813776
0.069066644 -0.11773229 0.096592903
0.0095106363 0.021893024 0.12529349
0.092556596 -0.14894199 0.071819305
0.07696867 -0.1486938 0.077851772
0.20275187 -0.050699949 -0.028296232
-0.0017688274 -0.14142227 -0.094943285
0.099515915 0.055902243 -0.10705614
0.13305986 -0.1451695 -0.04895997
0.19837832 0.049612522 0.0393188
0.18240952 0.00059604645 -0.06662035
-0.0046485662 -0.11302042 0.10808492
-0.12163413 -0.14905477 -0.05635047
-0.11510396 -0.14785028 -0.062824488
0.18581867 0.10779262 0.0042266846
-0.16098076 -0.059374332 0.076377869
0.0092436075 -0.10493922 -0.11005688
0.13884509 0.10381198 -0.073867083
0.010120511 -0.17999053 0.068840504
-0.040938497 -0.13600898 0.094120502
0.011792421 0.032342911 0.12416291
-0.18665469 0.098056555 -0.024174929
-0.14100647 0.012942314 -0.093908072
-0.20720488 0.051727533 -0.010483503
-0.052855253 0.067559004 0.11519384
0.13599837 -0.14269137 0.048332214
-0.11115599 0.092161894 -0.091958284
0.0076867342 0.11965609 0.10520935
0.20127225 -0.064682484 -0.022216797
0.21353972 -0.017947435 0.006560564
0.054260254 -0.043872833 -0.11956429
-0.11089015 -0.1779809 -0.02691412
0.1570226 -0.13330221 0.036471844
-0.17506862 -0.066785812 0.0641222
0.050894499 0.20803213 0.0049791336
-0.072623372 0.067466021 -0.1113379
0.14800441 -0.13488555 -0.044724464
0.2085557 -0.045885801 -0.018038988
0.045707822 0.13354206 0.09449935
0.093631864 0.19329739 0.0082998276
0.19946218 -0.058928967 0.030016184
-0.044975758 -0.070372343 0.11723518
0.049060225 0.13916016 0.091069937
0.040088415 -0.13946438 0.0934093
0.048843265 0.0047068596 0.12329555
-0.0011165142 0.18885231 -0.060767889
0.13170314 -0.057666779 0.094961643
0.0092000961 0.078701735 -0.11644292
-0.13659883 0.12675095 0.062215805
-0.2011292 0.032618523 -0.039088011
-0.017492056 0.099346638 0.11165357
-0.02349627 -0.10891962 -0.10869789
-0.048902631 -0.14592195 -0.087574482
-0.090870023 0.062781572 0.10855556
-0.12885177 -0.16327643 -0.030936718
-0.11489594 0.071706533 0.09787488
0.1632396 -0.13678145 0.0194695
-0.06915462 0.19359231 -0.036773205
0.15328109 0.098063707 -0.066723824
0.059175253 0.16236353 -0.075857401
-0.076743007 -0.19678116 -0.023196936
0.019051313 0.085967541 0.11506963
-0.20286119 0.025293112 -0.038901329
-0.10372651 0.05790019 -0.10423207
0.12006891 -0.18000388 -0.0017371178
0.16910028 0.0079286098 -0.077693462
0.032197475 -0.0065047741 0.12442708
0.0060065985 0.072672367 0.11848307
0.10546255 -0.079676628 -0.099354982
0.12591994 -0.17081046 -0.018391848
0.076364279 -0.029058695 0.11778283
-0.14766967 -0.072044373 0.081500769
0.068047523 -0.18218064 -0.053863049
0.13425207 -0.044180632 -0.095959663
-0.0093126297 -0.19523144 -0.051339388
0.12896919 -0.14198112 -0.056898594
0.11050856 -0.097626686 0.091156483
-0.059401631 -0.19456315 0.039581776
0.081834674 0.016027689 -0.11593151
-0.151604 0.14672947 -0.018409729
0.069751978 0.1572988 0.076160908
-0.14236772 0.068914175 0.085932732
0.16982102 -0.11733103 0.033721685
-0.16591406 0.038292646 0.07723546
0.090066314 0.026248217 -0.11374974
0.048975945 -0.091488123 0.1107986
0.04772985 -0.0049445629 -0.12271881
0.099295855 0.082884073 0.10137892
0.039010644 0.21045685 0.0098366737
-0.12706411 -0.14480805 -0.055988789
-0.0080550909 0.11857605 -0.10421252
-0.042276502 0.0080835819 0.12341833
0.16685474 0.046187878 -0.074348211
0.11755419 0.060647726 0.098936796
-0.15929472 -0.031455994 -0.08232069
-0.094360828 -0.058593273 0.10900068
-0.10088515 0.097443104 -0.09474659
-0.17374319 0.1191709 -0.020746469
-0.037589908 0.0059075356 0.12397122
0.05256784 0.065677881 0.11636281
-0.096370459 -0.16215444 -0.060432911
-0.062466145 -0.096663475 -0.10596824
0.1781261 -0.0022213459 -0.070406914
0.10224235 0.043420553 -0.10876608
-0.087674499 -0.096071959 0.10096097
-0.1516912 -0.099737644 -0.067031145
0.047415972 0.15400314 -0.082912207
0.14973187 0.012964725 -0.090897322
0.092650771 0.090821266 0.1008172
-0.0017733574 0.21213341 0.012991667
-0.19119245 0.092479944 0.02185297
0.11290646 -0.15846062 0.054372072
-0.19533658 0.035599709 0.047533512
0.096752286 -0.0002450943 0.11234713
0.029989839 -0.071596384 0.11794782
-0.030298948 -0.20802259 -0.02745986
0.18704331 0.10253286 -0.01698184
0.17103207 -0.12436938 0.021126986
0.20954478 0.04419899 -0.0089559555
0.12504041 -0.019275904 0.10262322
-0.20809698 -0.052495956 -0.0046186447
0.010054708 -0.17835069 -0.070166826
0.002458334 -0.054128885 -0.12245917
0.021298409 0.13470483 0.0973351
-0.059281945 0.016071558 -0.120785
0.20357442 0.011154652 0.039331675
-0.18038058 0.04654932 -0.063673496
-0.12211061 -0.16228819 0.041218758
-0.031485915 0.20770049 0.020776987
0.024491668 -0.051059961 0.12300491
0.11186481 -0.15378737 0.061068058
0.19473982 0.076296806 -0.032617331
0.085020781 0.17245483 0.055167913
0.19622993 0.087296963 -0.0017170906
-0.13931084 0.15768027 -0.018502951
0.035809875 0.13246655 -0.095917225
-0.10741341 0.029988289 -0.10708952
-0.032994866 -0.1716454 0.072523832
-0.018475652 -0.19984317 0.0429883
0.13120258 -0.1181798 0.070594788
-0.022710562 -0.038491964 -0.12272143
-0.18517882 0.083412409 0.041714191
-0.093291044 0.037149668 0.11141729
0.18120539 -0.015994549 -0.067030907
0.21033037 0.035063267 -0.018753052
0.068034649 -0.017099142 -0.1197319
-0.15332294 0.14848137 -0.0063471794
-0.016194582 -0.21312594 -0.0068154335
-0.076826572 0.12246871 0.092996597
0.0053325891 0.18069053 0.06781292
0.01260519 -0.095992804 -0.11235189
0.15771616 0.044954538 0.08144331
-0.15930545 0.13893104 0.02276063
-0.14303207 -0.10549498 0.070777655
0.14282441 -0.02702713 -0.092541933
0.084816098 -0.19388986 -0.01718545
-0.16590601 -0.13603139 -0.0060422421
0.12227416 -0.12629962 -0.071659327
-0.16446579 0.048119545 0.075874567
0.19568551 0.070362091 -0.034600735
-0.19993705 0.070456028 -0.018266201
0.027048707 0.10208535 0.11039066
0.13528204 0.14891386 0.043388128
-0.071720719 0.18127728 0.051827669
0.015617967 -0.20211267 -0.042087793
-0.2009024 0.050713778 0.032037497
-0.0841434 0.18161559 0.043259621
0.049411654 0.10567951 -0.10500073
-0.011263013 -0.12445974 -0.10322523
-0.12112844 0.10840034 0.082746983
-0.093755245 -0.18187809 0.039741993
-0.19371009 0.069308758 0.036140203
0.096981883 -0.1915307 0.0014691353
-0.19836813 -0.036324739 -0.042562962
-0.16319066 0.10406089 -0.053965807
0.051401377 0.20781517 -0.0044505596
0.15034401 0.15356445 -0.0004503727
0.032756686 0.15392566 0.085604191
-0.10648715 -0.034586668 -0.10851121
-0.053558707 0.052474737 -0.11749482
0.14678919 -0.14483047 0.034294367
0.039047122 0.1215086 -0.10128284
0.0051618814 -0.11976218 0.10459757
-0.12679744 -0.11850762 0.07551074
0.18380702 -0.042995453 -0.061363459
0.097531438 -0.1330049 0.080901861
-0.022848248 -0.13333988 -0.097873688
0.086183429 0.10064936 -0.099092484
0.16803193 -0.0888834 0.057640314
0.04685092 0.032563448 -0.12213516
-0.10212231 -0.17753983 0.040435076
-0.18205029 -0.11538577 -0.0082027912
0.036173582 0.19700408 -0.043552876
-0.15730339 -0.14195418 -0.020301819
-0.2081846 -0.0017766953 0.030577898
0.20611596 0.014060497 -0.034450769
-0.18951631 0.070410252 -0.043914557
-0.14605618 0.12419176 -0.056634665
-0.09383738 0.10596299 0.095432758
-0.048632026 0.064247847 -0.11587667
-0.056569457 0.082690477 -0.11081123
0.059438229 0.11061716 0.10221672
0.032932997 0.10126615 0.10965252
0.0033140182 -0.12783265 -0.10087633
0.12696493 -0.10496807 0.081175804
-0.096211195 0.017120838 -0.11217427
-0.13853621 -0.079051256 0.085569382
-0.20472556 -0.051895618 -0.024870872
0.12329733 0.16741943 0.029456377
-0.070652485 -0.073132038 -0.1111989
-0.014280081 0.1450429 0.092385292
-0.0018336773 -0.056720018 -0.1219933
-0.039422393 0.038792372 -0.12167335
0.12842727 0.0017626286 -0.10136008
0.019643664 0.09660244 -0.11183238
-0.017538548 -0.1798327 -0.06733942
0.0002374649 0.098708391 0.11180997
-0.055675149 0.18214369 -0.057346344
0.053051353 0.20653343 -0.0084342957
0.056818366 -0.0032229424 -0.12192011
-0.11730254 -0.099117041 -0.088098288
0.12076294 0.15003037 0.055637598
-0.19470453 -0.029843569 0.050791979
-0.030901551 -0.094002485 0.11237931
0.045924306 0.071730614 -0.11636615
-0.096839309 -0.1934402 0.00091099739
-0.09328723 -0.1602478 -0.063647032
-0.0091985464 -0.21133852 -0.017326832
0.19271493 0.080547333 -0.032967567
0.17884851 -0.060337305 -0.061467171
0.0455966 -0.037831783 -0.12141228
-0.091979265 0.11237359 -0.092409372
-0.20445246 0.04422307 -0.027086258
0.01000464 -0.21211839 0.018748999
-0.059755325 0.18112469 0.058542967
-0.048840523 -0.20599961 0.023303032
-0.17812538 -0.0746243 -0.055265427
-0.036607385 -0.10073018 -0.10906196
-0.064944506 -0.19523382 0.034891367
-0.16117537 0.086449385 -0.064447641
-0.018311024 -0.19787431 -0.046077013
0.15487003 0.019817114 -0.088051796
-0.18983233 -0.065499306 0.045341969
0.014006734 0.20888114 0.024282217
-0.19848311 0.060867786 -0.029670715
0.13001156 -0.13957596 0.058324099
-0.20758373 -0.056002617 -0.001219511
0.079377294 0.15877461 -0.070443869
-0.01541853 0.0030303001 -0.12587142
-0.11612689 -0.13104105 -0.074356556
-0.055439115 -0.085583687 -0.11065269
-0.042743683 0.066969872 0.11689901
-0.091399431 -0.043672085 -0.11138058
-0.19172013 0.07469511 0.037109852
-0.1059612 0.088992834 -0.095289469
0.080699921 0.05759263 -0.11151385
-0.20634294 0.049765348 0.019992828
-0.032947302 0.19580054 0.045336485
-0.15949321 -0.087104797 -0.067650557
-0.19912648 0.068794966 0.023854256
-0.19908035 -0.070064783 -0.024498463
0.098870397 -0.00060153008 -0.11175489
0.025136113 0.049376965 0.12183928
0.081235051 -0.13234735 -0.087577343
0.079157591 0.19526029 0.023330212
0.17240846 0.084486008 -0.057510853
-0.10017991 -0.14344406 0.073301792
0.10877132 -0.16421342 -0.050044537
0.1799835 0.042536736 0.065066576
0.12286103 -0.1584332 0.044460535
0.13302767 -0.14882112 -0.044871092
-0.0041210651 -0.12037635 -0.1046977
0.052224398 0.19153547 -0.047711134
0.00071871281 -0.20091128 -0.043850183
-0.15909863 -0.14302039 0.011532545
0.097036719 0.042669535 0.11064219
0.0098627806 0.18237162 -0.065021992
0.11082292 -0.0942173 -0.092307091
-0.026661754 -0.052580357 -0.12115383
0.076221347 0.16352439 0.067712545
-0.18856752 -0.034341812 -0.0581038
-0.057334185 -0.11179256 -0.10206413
-0.13528323 0.13172245 -0.058953762
-0.11801553 -0.12440515 0.078201294
0.17160809 -0.082568645 -0.057642698
-0.20088732 0.040597677 -0.036916733
0.051517963 -0.20311761 -0.026008844
-0.0055096149 -0.21022367 -0.023698568
-0.069574714 -0.026512384 -0.11852026
-0.068110943 -0.045075655 -0.11599779
0.21305811 -0.035629511 -0.00095057487
0.17667305 0.081949949 -0.053285837
0.065105796 0.065975189 0.11371708
0.16716087 -0.054362535 0.072196484
-0.10289443 -0.16110897 0.058912754
0.085484862 -0.12888288 0.088161707
-0.17199624 0.086281061 -0.054198265
-0.1418677 -0.027668476 0.093658686
-0.071253896 -0.041761637 0.11635733
-0.098010421 0.16675091 0.05308485
0.19186985 0.070355415 -0.039618015
-0.10444427 -0.18369889 -0.024588346
0.05118072 0.19221449 0.047845602
-0.19110417 0.053655386 0.047979593
-0.020233512 0.19514847 0.049768686
0.034191608 -0.031282663 -0.12281585
0.10060441 0.076705217 0.10224056
-0.10183966 0.092350245 0.096851349
0.064624906 -0.20100117 -0.023358107
0.060205102 0.13510871 -0.091178179
-0.16946191 0.014028072 -0.077698946
-0.15583462 -0.13875794 -0.030621529
-0.029048562 -0.1253674 -0.10119247
0.0082604885 0.18863797 -0.059826374
0.094451904 -0.069751978 0.10611081
0.098950028 0.04069066 -0.11044288
0.15457618 -0.058337212 0.079876423
0.10272694 0.1665988 -0.052557468
-0.20212096 0.017941713 -0.042292118
-0.049236059 0.0047256947 0.12290025
-0.16735297 -0.12925434 0.023038149
0.08993268 -0.10989809 -0.094807386
-0.14658237 -0.13363004 0.049990654
0.20213234 -0.066663504 0.014971972
-0.129583 0.12070298 0.070181847
-0.067582726 -0.19919515 -0.026254177
-0.023998857 0.0026347637 -0.12502241
-0.036327481 0.14110327 -0.092120171
0.06983006 -0.1743443 0.062584639
-0.080740333 0.077078104 0.10890198
0.1102109 0.07163167 -0.099259377
-0.00023758411 -0.17102861 -0.077013969
-0.048711658 0.15578818 -0.08119297
0.14156628 0.0449512 -0.092092276
-0.10281146 0.18747902 -0.0019547939
0.15396631 0.058087826 -0.081163645
0.18730903 -0.052767754 0.053534269
-0.061576366 -0.2051661 -0.005179882
0.2069881 0.052555084 -0.012736082
-0.04023242 -0.20050454 -0.039155006
0.082123876 -0.18535852 -0.040601492
0.027510762 0.16249728 0.080599785
-0.17136079 0.054294109 -0.0686481
0.078816891 0.15021396 -0.07649374
-0.066064 0.036559582 -0.11873627
0.20104682 0.039754868 0.037920713
-0.1249373 -0.030627251 -0.10039783
-0.18095559 0.021234274 0.06683588
0.15388501 0.11591792 0.056935787
0.035835862 -0.18618965 0.058803558
-0.072463155 -0.14485979 -0.08279705
0.077834725 -0.19588113 0.023154974
0.15095401 0.11250806 -0.06106019
-0.18239713 0.01030302 -0.065611839
0.06409061 0.023742199 0.12035775
-0.068217635 -0.024008274 0.11965346
-0.019648433 0.17319703 -0.071749687
-0.091822147 0.078015327 0.1058569
-0.18453252 -0.10459065 -0.024889708
-0.035484076 -0.16497397 -0.077804327
-0.0061868429 0.020595789 -0.12574983
-0.093051076 0.0096113682 -0.11295033
-0.11715329 0.15545607 -0.052513599
0.13388193 0.016902208 0.097723484
-0.12646711 -0.069871187 -0.093041658
-0.12110174 0.15822005 0.046175718
-0.14382982 0.15643024 -0.0082814693
-0.05860424 -0.16752481 0.072191477
-0.033884764 -0.016273022 -0.12432313
-0.18675739 0.086677313 -0.034989119
-0.079428315 0.00079345703 0.11702895
0.022875071 0.065083504 -0.11995173
-0.12656653 0.093106985 -0.084858656
0.14809513 0.15127683 -0.022646904
0.21025896 -0.041965246 0.015110016
-0.045373559 0.20717549 -0.0093548298
-0.15653253 -0.03115344 0.085201263
0.16961753 0.13172102 -0.0024838448
-0.016490221 -0.14030099 -0.095109463
-0.0048880577 0.19729137 -0.048281431
-0.057839394 -0.2042346 0.016847134
0.10895419 -0.16717267 -0.04616046
-0.043861747 -0.19525552 -0.046809912
-0.12120986 0.14750457 -0.057241678
-0.077616811 0.15581155 0.072685242
-0.17409128 -0.10484004 0.041341543
-0.17864305 0.047221422 0.066446781
-0.023247719 0.074556828 -0.11738539
-0.18444079 -0.11123109 0.0013439655
-0.017029762 -0.16973901 0.076079845
0.10345352 0.14915919 -0.067716837
0.11067271 0.082028627 0.09699297
-0.13385355 -0.08991766 0.085015535
0.079136133 0.035230398 0.11548781
0.17322648 0.0067207813 -0.074214935
0.16678429 0.051905394 -0.073362589
-0.039258361 0.13677979 0.094782591
0.16255474 0.12299204 0.039767742
-0.17748368 -0.096936703 0.042690277
-0.18325061 0.01751399 0.064826965
0.16273499 -0.031122684 0.080884457
0.056581259 0.20397711 0.016597509
0.13228261 -0.034267902 0.097612143
0.022451162 0.019793987 -0.12452936
0.023548245 -0.12057638 -0.10307598
0.04700613 0.12819314 -0.0966506
0.011076689 0.039475441 -0.12306499
-0.18076479 0.099921942 -0.031725883
-0.12780619 0.14161921 0.057813883
-0.17241776 -0.060715437 -0.06715107
0.075094342 0.066919327 0.11150146
0.13272488 0.04080224 0.096474409
0.032392144 -0.18895364 0.055860281
0.0093561411 0.092312574 0.11344647
0.15405297 0.029045582 -0.087040424
0.19983912 0.016999245 -0.045404434
-0.081079483 0.096459627 0.10221052
0.12416375 -0.096465826 0.085522175
0.20393908 0.056997538 -0.02158165
-0.1685015 -0.040786505 0.074496508
0.1020745 -0.17891479 -0.0357306
0.18421161 0.070949793 -0.049359083
-0.050418139 0.13789248 0.093226433
0.146348 -0.081345081 -0.080195665
-0.057979584 -0.14048624 0.089414835
0.12313235 -0.067190409 -0.095726728
-0.05413878 -0.022485018 -0.12233567
-0.093550801 -0.15153837 0.070854187
-0.10733831 0.18244863 0.014340639
-0.1950928 -0.087845802 0.011465311
-0.065854192 0.20326114 0.0089640617
0.20717418 -0.031862974 0.030539036
0.029817939 -0.00016951561 -0.12467003
-0.045515299 0.18252969 0.060507298
0.17529607 -0.11013937 0.031967878
-0.18886226 0.029367924 0.057640076
0.1296736 0.15040374 0.046916008
0.1176455 -0.17381573 0.031251431
0.17045832 0.12700582 0.017631054
0.010539532 0.11307144 -0.10751224
0.16970158 0.092432976 0.055928946
0.18696141 0.07090354 0.0457201
0.0066372156 -0.19911313 0.047291517
-0.084483624 0.0068099499 -0.11515141
0.10914135 -0.16997266 -0.0424757
0.11973596 -0.0014748573 0.10553622
0.015432954 0.1641221 -0.080045462
0.059147477 -0.17565465 -0.065766811
0.05109477 -0.005371809 0.12256932
0.15767992 0.14199042 -0.017594814
-0.0023627281 0.18371725 -0.06533289
-0.17560506 0.09151268 -0.0480299
-0.070371747 -0.12128186 0.097175837
0.1986773 0.068785906 0.027955055
0.12206256 -0.069290638 0.095385551
0.1651684 -0.12938404 -0.029991627
0.14638889 0.066645145 0.083742857
0.054853559 0.20726204 0.0021111965
0.016715884 0.10927701 -0.10852432
-0.027176142 -0.069280148 -0.11918545
-0.033483863 -0.14013791 0.092951775
0.051218748 0.20553565 -0.017069578
-0.20534855 -0.0078928471 0.037047863
-0.046226144 -0.16419411 0.077341795
-0.16556871 -0.090812683 0.062503338
-0.10854638 -0.071890831 0.10035563
-0.1439752 -0.16029358 0.0089056492
-0.16510034 -0.12063861 -0.038461924
0.041542053 -0.077481985 0.11487293
0.079958916 -0.17051172 -0.060905218
-0.14495963 -0.054264545 0.089226246
0.066625714 -0.07749939 0.11081362
-0.15773153 0.064712048 -0.075480223
0.062354922 0.14333057 -0.086525917
-0.072021127 -0.013991833 -0.11826062
-0.17007422 -0.12474585 0.024500608
-0.08665967 0.11210299 -0.093812466
0.12196469 -0.015678883 -0.10450721
-0.027077436 -0.14144921 -0.093010426
0.086114168 -0.18099928 0.043215752
-0.10667205 -0.01168251 -0.10930705
0.063656569 -0.20344591 0.013174534
0.011313438 -0.022457838 -0.12543225
0.15673554 0.068069935 0.076001883
-0.011345267 0.15079212 0.089918375
-0.11043179 0.085532665 -0.094457626
0.10698318 0.094783545 -0.093580008
0.19299984 0.091074467 -0.01341176
0.062332988 0.18031716 0.05765295
-0.214468 0.0021238327 -0.0033569336
-0.086157918 2.7894974e-05 0.11531425
0.11219513 -0.18075371 0.014143944
-0.090025663 -0.18960118 0.02870965
-0.086506724 0.0047824383 0.11526775
-0.18989784 0.0053906441 -0.058202982
-0.15348601 -0.14441824 -0.025523186
-0.150473 -0.12878633 0.050663471
-0.090695262 0.19194484 0.0099034309
0.0059686899 0.068360567 0.11958885
-0.1105504 0.12126541 -0.080863953
0.10615563 0.02914834 -0.10926509
-0.16372776 -0.12200618 0.039747715
-0.16619992 0.043961763 0.075687885
-0.14940876 0.10918903 -0.063481092
-0.014249682 0.21246147 0.014846563
0.16622376 -0.074061632 0.066568613
-0.089794517 -0.16294026 -0.06259656
0.14334559 0.15910053 0.017255545
0.20760572 -0.052521467 0.0091991425
-0.030166626 0.20553398 0.031471491
-0.011671066 -0.0086052418 -0.12617946
-0.024930716 -0.18004203 -0.066241741
-0.1095196 0.1800878 -0.01832509
0.054865122 -0.026807547 -0.12102389
0.15364778 -0.019224644 0.087114334
0.02553916 0.03283596 -0.12307596
0.081641912 0.062285662 -0.1105926
-0.044577956 0.14644647 -0.088956594
0.16505778 -0.11621904 0.042356491
0.12947667 0.07432127 0.091094017
0.14255953 0.060031414 0.088588238
0.18141198 0.038229942 -0.064903021
-0.09578824 -0.11653042 -0.089503765
0.034354091 -0.011036158 0.12398434
0.1521914 -0.039659739 0.086054087
-0.13616896 -0.012211561 -0.096648216
-0.12231255 0.1294353 0.069564342
-0.077258229 0.13391519 0.087731838
0.024243712 0.14390016 -0.09143877
-0.18909889 -0.060539246 -0.04751873
0.20301056 -0.065999508 0.010268688
0.16625202 -0.13230324 0.019101381
0.056972384 0.19839597 -0.032782078
0.072911263 -0.18173385 -0.051245451
-0.10397184 0.0052273273 -0.11010003
-0.12845147 0.15227771 -0.044006109
0.0497967 -0.0090970993 -0.12232852
-0.00038528442 0.10445189 0.11033773
0.016880035 -0.023522854 -0.1248455
0.17082703 0.11169863 -0.038409948
0.030346751 0.070128918 0.11912584
0.012316942 0.0031404495 -0.12651324
-0.15635073 0.10359883 0.061791182
-0.21472228 -0.0037603378 -0.0043208599
0.046325684 0.061825275 -0.11782598
0.15481102 -0.09995532 -0.065168858
0.087002993 0.17128992 -0.054928064
-0.014540315 -0.1418972 0.094611168
0.16851902 -0.13036418 0.014318466
0.1468004 0.097305775 0.071750879
0.19929171 -0.039774418 0.0403409
0.12965608 0.15865135 -0.03722024
-0.07745254 -0.19437122 0.028430223
-0.051573157 0.12089729 0.099634171
-0.14799273 -0.076808453 -0.079090595
-0.12208176 0.17749643 -0.0022325516
-0.16338289 -0.080237865 -0.067150593
-0.18517822 0.066614151 0.052302837
0.12471211 0.016004324 0.10196853
0.037690163 -0.18039179 0.064764977
-0.15059704 -0.15247726 -0.01163578
0.14311564 0.16170883 -5.7458878e-05
-0.21111453 -0.0056436062 -0.022242308
-0.067590475 -0.1508534 0.081208944
0.063199759 0.10156775 -0.10404015
0.043991685 -0.11750555 -0.10276628
-0.02775383 -0.201442 -0.039326191
-0.0040173531 -0.21158504 -0.017568827
-0.045816183 0.051351786 0.11956215
-0.057409763 -0.15022564 -0.084108591
0.11968458 -0.15994883 -0.04645443
-0.045126557 -0.15388823 0.084069252
0.14567673 0.035764217 0.090946436
0.041279912 0.21080446 -0.0062973499
-0.033101678 -0.20871806 -0.023347378
0.12166691 0.031668186 0.10219264
0.11271131 0.055455446 -0.1018877
-0.04880023 -0.036821365 0.12167907
0.12558436 0.063833714 0.094985962
0.030271769 0.2122767 0.0034945011
-0.18108356 -0.076296091 -0.050441265
0.19298363 -0.048351288 0.046737432
-0.044393182 0.17523551 0.067750216
-0.16823709 0.10544515 0.047294855
0.11332381 -0.058996677 -0.10158324
0.036899209 -0.016710043 -0.12322426
0.02565062 -0.16726112 -0.076594591
0.13386965 -0.027364969 -0.097320318
-0.13511455 -0.1143558 -0.071324348
-0.10878193 -0.18311381 0.016352654
0.18858707 0.058225393 -0.04945302
-0.073572755 0.19174433 0.037299395
-0.0092331171 0.081744194 -0.11557484
-0.033636332 0.16930294 -0.072839499
-0.064410448 0.2019527 0.016010284
0.14526069 0.1580019 0.010552883
0.011804819 0.20257187 -0.037945271
0.063918948 -0.0064599514 0.1208775
-0.060004473 0.020990849 0.12111139
0.031324387 0.048621416 -0.12122488
0.15844846 -0.11441517 0.054383993
0.16636872 0.095718622 0.058073282
-0.14711678 -0.15145278 0.027122736
0.13122785 0.15484929 0.040411949
0.080762744 -0.19055176 -0.034886599
-0.096047401 0.14647198 -0.071210146
-0.15127021 -0.15064907 0.016700029
0.10644746 -0.10013843 -0.09228754
-0.067792654 0.19979548 0.022384405
-0.11675978 -0.01194191 -0.10551333
-0.18150145 -0.057793856 -0.059058666
-0.099147201 -0.18889236 -0.019401312
0.17848551 0.013260603 -0.069433451
0.16465974 -0.10842276 -0.050728321
0.021771908 0.048516273 -0.12166905
0.093630791 0.053960085 -0.10945702
-0.19293386 -0.089022875 -0.019165277
0.0563097 0.0082788467 0.12271643
-0.084458232 0.06770134 -0.1091733
-0.18560702 0.090556145 -0.033073664
-0.022418976 0.034883261 0.12410378
0.16951919 0.11024141 0.042004824
0.17861545 -0.0030276775 0.069832802
-0.14739776 0.094558001 -0.07350111
0.19303691 -0.097059488 0.0014250278
0.00052726269 0.20422792 -0.036785603
0.043740749 0.18258929 0.06141448
0.0076087713 0.012834787 -0.12590361
-0.11725414 -0.031944513 -0.10380125
0.19331491 0.013386726 0.056487799
0.13488913 -0.16666842 0.0039134026
-0.20610702 0.03114295 0.033237457
0.013870597 -0.20569253 0.037379265
0.0068280697 -0.11128783 -0.10824847
-0.067986727 0.19464922 0.037262678
0.20264685 -0.023305893 -0.04102087
-0.11918998 -0.17310262 0.025277615
-0.14455873 0.015610933 0.092623472
-0.05223906 -0.17859077 -0.064086199
-0.17594236 0.020254374 -0.07134366
0.13871408 -0.15995383 0.01602006
-0.063312531 0.18912268 -0.045296669
-0.040580392 0.054737091 0.1197021
-0.044681668 0.0759902 -0.11410737
0.018764138 -0.056940317 0.12256789
-0.15374947 0.14611793 0.014806747
-0.014005899 0.0058431625 0.12625337
0.13931966 -0.14328551 0.044084549
0.17251682 -0.10599637 -0.040728331
0.025478125 -0.11870122 0.10386753
0.14704871 0.13904166 0.043660164
-0.036543012 -0.068194151 0.11928391
0.070285916 -0.060485125 0.11371112
0.15574634 -0.14801264 -0.0047576427
0.17889416 -0.078153372 -0.052879095
-0.00054979324 -0.14724255 -0.092214584
-0.11509144 0.032886982 0.10492659
0.0086936951 0.17534757 0.071959972
0.16445553 -0.011598825 -0.08200264
-0.037646174 -0.010204554 0.12470675
0.10048413 -0.089797497 -0.098234653
-0.17657584 0.040397882 0.069360733
0.018630385 -0.034469843 -0.12417316
0.13202345 0.16677356 0.018418074
-0.1997475 0.054688931 -0.030964375
0.1282481 -0.15849352 -0.039016008
0.044039726 0.038892031 -0.12162638
-0.034846544 -0.022193909 -0.12369919
0.059520125 -0.059053659 0.11574531
0.043807864 -0.20978951 -0.0037884712
0.043122053 -0.19398761 -0.045897722
-0.05489707 0.13594294 -0.092068195
0.12734401 0.020757914 0.10041618
-0.15185761 0.089757919 -0.071736097
0.1843313 0.063687801 0.053098917
0.15741122 -0.14463234 0.01098609
-0.076576591 0.14878631 -0.076941252
0.14149559 -0.033750296 -0.092792034
0.041413188 0.20912981 -0.014892817
-0.0030138493 -0.1321187 0.099385023
-0.15811813 0.096698284 0.063431978
0.1017673 0.13137865 -0.079310417
0.039318681 -0.037601471 0.12216878
0.0093733072 -0.071540356 -0.1186204
0.10362542 -0.07605195 0.10128474
0.11399019 0.052690268 0.10213661
0.0082682371 -0.025569916 0.12578845
-0.010628343 -0.039001703 -0.12327552
-0.11135459 -0.17548847 0.031537294
0.014191151 0.13972425 -0.095028162
-0.18011606 -0.031564474 0.067481995
0.13055193 0.0083343983 -0.099893808
-0.09075582 0.15726686 -0.065780878
-0.13394928 0.074084759 -0.087861776
-0.082420588 0.043202639 -0.11342621
0.027478456 0.065404415 0.12016416
0.19278884 0.094049215 0.0028538704
0.13267267 0.12263966 0.06807375
0.097686052 -0.1800065 0.03680253
-0.14386523 0.06375742 0.086145639
-0.1169883 -0.071985245 -0.09640646
-0.030640364 -0.19899225 0.042780161
-0.12031722 -0.12597275 -0.075113297
-0.0080136061 0.16350794 -0.080804825
-0.039811254 -0.21275473 -0.0021092892
-0.015770316 -0.19503999 0.050815821
0.15342343 -0.011148214 -0.087949276
-0.18011904 0.10463357 -0.028205633
0.025835872 0.19820929 -0.042976856
0.067659736 -0.18834233 -0.04627943
0.019323587 -0.11342001 0.10667491
0.15644443 0.13917994 0.02826333
-0.13709664 0.089086771 0.082585096
0.19590986 0.014589548 0.052638769
0.19456351 -0.080248594 -0.02725482
0.13765895 -0.16347885 0.006541729
-0.029954553 -0.10502625 0.10901904
0.091874719 0.063787699 -0.10828424
0.14011979 -0.084897518 0.082297087
0.019410968 0.20627832 -0.031208515
0.11222172 -0.14692712 -0.065745592
-0.15986478 0.1266818 -0.039090872
-0.10787582 -0.0095515251 0.10971379
0.026784301 -0.041935205 0.12322402
0.046601772 -0.01487112 0.12255478
-0.035730481 0.16686559 0.075290918
0.064082623 -0.036763906 -0.1194551
0.066914558 -0.19332004 -0.040255308
0.0029371977 -0.14005566 0.095364571
0.089537501 0.071628571 0.10778856
0.032561421 -0.10551405 0.1095295
0.011132836 0.2128818 -0.0048868656
-0.12761056 0.13720584 -0.060533047
0.14396036 0.15823388 -0.017280817
-0.19002473 0.07723546 -0.03834033
-0.12208307 0.066870689 -0.095462799
0.15805185 -0.072673798 -0.074309111
0.19977653 -0.077224255 -0.007445097
-0.17024148 0.0062944889 0.077596188
-0.11808336 0.036041498 -0.10267568
0.18109548 -0.045663595 -0.063925505
-0.10564506 0.12594843 0.082051992
-0.12991631 -0.15991473 -0.036154985
-0.18080169 0.073696136 -0.051906109
-0.026281953 -0.079399824 0.11691666
-0.20066351 -0.059639215 -0.031961679
-0.076640368 0.023039579 0.11793613
-0.10122216 -0.011521339 -0.11071825
0.1228106 0.097081423 -0.086731672
0.15816951 0.05070281 -0.080026388
-0.063529968 0.018800259 -0.12022018
-0.11059308 -0.15298271 -0.062163353
0.16931653 0.11653852 -0.035806179
0.12740469 0.038542271 -0.098967075
-0.043155789 -0.13787842 -0.092617989
-0.091327071 -0.165663 -0.059283018
-0.049694419 -0.088935852 0.11089873
0.053518057 0.12202621 0.099454641
-0.08055377 -0.16000271 -0.069544554
-0.05791378 0.17796397 0.063494205
-0.12557912 -0.16238713 -0.037338972
0.014147758 0.064456701 -0.12016749
-0.087571144 -0.12985516 0.086493969
-0.057247639 -0.18483901 0.055971622
0.11746049 0.13639545 -0.069061041
0.042660952 0.099020004 0.10871482
-0.046211123 -0.12319756 -0.099910259
-0.011801243 0.059314251 -0.12139654
0.15871727 -0.030284882 0.083565712
0.055183887 -0.056912422 0.11688566
-0.10685575 0.16294789 -0.051096201
0.1074971 0.090886831 0.095143557
-0.12354779 -0.10968208 0.08213973
-0.11069727 0.16237593 0.050339699
-0.15348309 0.017123699 0.087733984
0.06223619 0.012705326 0.12120581
0.12454402 0.15188003 -0.04967618
-0.14517117 0.1198926 -0.059765339
0.070505977 0.20103598 0.0077543259
-0.17522192 -0.094927311 -0.04656291
-0.14668685 0.099752903 -0.070845127
0.13643765 0.077064753 0.087349176
-0.14583236 -0.15767789 0.013057709
-0.15571374 -0.01900959 -0.087236404
-0.003330946 0.083632231 -0.11510873
0.17578423 -0.07796979 0.055541515
-0.014915586 -0.071302891 0.11897445
0.20273423 -0.0058426857 0.043571472
-0.035385609 -0.20742226 -0.028944492
0.04737556 0.005150795 -0.12321806
0.12213886 -0.061481953 0.097920656
-0.044297934 -0.14425445 -0.089102268
-0.059414148 0.043018341 0.11910748
-0.19747865 0.024085283 0.048045397
0.21178019 0.0048975945 -0.021315098
0.064812303 0.052297592 -0.1155591
0.022032976 0.11627436 0.10676312
0.14958596 -0.1293788 -0.049266338
0.20871067 0.02520442 0.027658701
-0.13570893 0.16275644 -0.011675358
0.030191064 0.16632652 -0.076377392
0.039356828 -0.10001612 0.110605
0.0089361668 0.19747424 -0.046252966
-0.094228148 -0.082695961 -0.10324049
0.1122272 0.16197395 0.050001621
-0.11229026 0.1072576 0.087471247
-0.025503635 0.1213119 -0.10190392
-0.17487979 0.12125278 -0.0087311268
0.17189193 -0.089012623 0.053891897
-0.053115845 -0.065032482 0.11641479
-0.075098634 0.052698374 0.11469722
-0.19268852 0.03440237 -0.050709009
0.096891165 -0.10021496 0.096304893
-0.0024183989 0.051106691 0.12304878
0.03642714 0.11866498 0.10357261
-0.12059796 0.097859621 0.086909533
-0.11090219 -0.12389374 -0.080754042
-0.2143895 0.00033473969 0.0065386295
-0.0088787079 0.20669627 -0.034123421
0.013930202 0.19014525 -0.057048559
0.11644304 -0.084293127 0.092927456
-0.026187658 -0.095429182 -0.11248159
-0.045868158 -0.037171125 -0.12169218
0.1177206 -0.087907791 -0.091356516
-0.14163154 0.13757443 -0.046645641
-0.018672705 -0.1863451 0.061604023
0.0084910393 0.21276116 0.0071554184
-0.030776978 -0.062070608 -0.1200254
-0.029058933 -0.086830139 0.11497021
0.20808339 -0.0088281631 -0.03123951
0.0858531 0.0088262558 0.1151166
-0.084857345 -0.013526201 -0.1149416
-0.022184134 -0.18420911 -0.06302309
0.13301992 0.052250385 0.094540358
0.011718154 0.042452335 0.12318349
0.13546038 -0.16334558 -0.014644861
-0.014096618 0.16945457 -0.075391769
-0.023317456 0.086835623 0.11486363
-0.030412316 -0.17561316 0.069421768
-0.11440217 0.1343255 -0.070617914
0.18888414 -0.058690071 0.049389839
-0.050247669 0.19360471 -0.042640686
-0.17122 -0.0084884167 0.076123238
-0.13111699 -0.079873323 0.089553595
0.064885616 0.032413483 0.1188724
0.0011742115 -0.16314864 -0.082960367
-0.0095726252 -0.067576647 -0.11962914
-0.10657299 0.054378748 -0.10380435
-0.012548327 0.11325169 -0.10640073
-0.10049534 0.18627691 -0.011639357
-0.10028636 -0.19075012 0.0035767555
0.010091901 -0.038595676 -0.12435174
-0.13211489 -0.11389256 0.074138403
-0.1329869 -0.13243985 -0.060673237
0.018774271 -0.17081094 0.074731827
-0.10574865 -0.043325901 0.10787702
-0.051463127 0.12604403 -0.096839666
-0.11736572 0.17141104 0.034480095
0.0037424564 0.19807363 -0.045974016
0.099035382 0.15556979 0.065261364
-0.10235798 0.16379857 0.053992987
-0.13499868 -0.077323198 0.088575363
0.16087568 0.082118988 -0.068458557
-0.084000468 0.038530588 -0.11358619
0.18483555 -0.075939417 -0.048328876
0.03401494 0.12322378 0.10157943
0.073014259 -0.019145727 0.11859488
0.076313853 -0.10652399 0.09928441
0.023079872 -0.15059781 0.089290857
-0.15033937 0.14774585 0.019859552
0.061996937 -0.077613592 0.11153889
-0.1678136 0.048980474 -0.07237649
-0.098793507 0.064421177 -0.10491109
-0.0074644089 -0.17697525 -0.071034431
-0.087118506 0.032311201 -0.11346316
0.081246376 -0.13272262 0.087219238
0.083526611 -0.067567825 0.11004376
-0.0019943714 -0.049661636 0.12289739
0.029501677 -0.0545156 -0.1213057
0.086363554 0.14638472 -0.075963974
0.21247089 0.0020098686 0.017993212
0.10585546 -0.15778041 0.05993104
-0.04300344 -0.11423016 -0.1037209
-0.14663577 -0.055062294 -0.087124109
-0.14986575 0.022536993 0.089301586
-0.06333518 0.17817998 -0.060441256
-0.045855045 0.12018275 -0.10053563
-0.048974633 -0.0058774948 -0.1229136
0.059185147 -0.11329126 0.10076451
0.058166265 -0.20448422 0.013649225
-0.0854491 -0.16259551 0.065153599
-0.11275065 0.056415081 -0.10146332
-0.14948142 0.11819267 -0.058052063
0.013576269 -0.21582174 0.0016524792
0.10075009 0.15414381 -0.065526485
-0.013084292 -0.079133511 -0.11666489
-0.08651638 0.19490409 0.0064971447
0.096041799 -0.19136 -0.0047197342
0.18985784 -0.10136175 0.0031480789
-0.20134258 -0.021960497 -0.041189432
0.073119998 0.018921137 0.11835527
0.062689066 0.17522264 0.062419891
-0.18638408 -0.094862461 -0.031348705
-0.02226603 -0.20731783 -0.030942678
0.11480963 0.14526749 0.0648489
-0.064675808 0.12973022 -0.092157125
-0.14943337 -0.054831505 0.085920334
-0.052425027 -0.2041657 0.026832581
0.024052143 -0.13824439 0.094934225
-0.033109784 -0.097937822 0.11075997
-0.023353577 0.12881994 0.099302053
-0.13300872 -0.068145275 0.091427803
0.018734574 0.14798307 -0.090028286
-0.0057507753 -0.18387032 0.065283298
0.044086814 0.081004143 -0.11374784
0.13533378 -0.066011906 0.090616703
0.12314928 0.092010021 -0.088594913
0.11282599 -0.17097378 -0.038788557
-0.10258913 0.18383312 0.018360376
0.10397053 -0.0097515583 -0.11054182
-0.13651264 -0.16733694 0.0016357899
-0.13014984 0.16801858 -0.01057744
-0.031677127 -0.13039804 0.098362207
-0.055595517 -0.17539787 -0.065756083
0.01685071 0.17170525 0.074058056
0.017279863 -0.10994172 -0.1082859
0.13420308 -0.090576887 -0.083326101
-0.032606721 -0.18989468 0.056714058
