# .PCD v0.7 - Point Cloud Data file format
VERSION 0.7
FIELDS x y z normal_x normal_y normal_z
SIZE 4 4 4 4 4 4
TYPE F F F F F F
COUNT 1 1 1 1 1 1
WIDTH 728
HEIGHT 1
VIEWPOINT 0 0 0 1 0 0 0
POINTS 728
DATA ascii
48.698772 53.604626 -31.893955 -0.80764282 -0.040479906 0.5882808
51.399849 44.776657 -28.74086 -0.88671249 -0.099015959 0.45159358
52.491394 39.858944 -27.309788 -0.89110577 -0.029527841 0.45283413
53.261223 37.92411 -26.000168 -0.85985667 -0.052513689 0.50782752
58.44524 20.644878 -17.537163 -0.95146739 -0.022074495 0.30695695
58.783531 18.257513 -15.610552 -0.9914254 -0.08049269 0.10293932
62.115673 -8.065052 -5.6971431 -0.98578948 -0.071945161 0.15179929
47.438564 55.350842 -33.663517 -0.81511927 -0.038618665 0.57800448
54.491169 34.620907 -23.494436 -0.90572846 -0.019609507 0.42340457
57.298462 23.159327 -19.611286 -0.90890062 -0.028585386 0.41603181
62.607838 -12.289469 -5.3274856 -0.97703493 -0.20557332 0.056056354
63.606499 -16.724194 -4.879437 -0.99654388 -0.079470217 0.024183689
41.114922 61.906139 -39.209072 -0.69972897 -0.053172253 0.7124269
59.856449 -73.891449 55.51194 -0.35442764 -0.89349049 -0.27578226
50.929905 47.899456 -28.970098 -0.88071203 -0.10580634 0.46168312
57.403446 17.737507 -19.29582 -0.93859613 -0.065785587 0.33868793
59.116642 7.086607 -15.108849 -0.97704738 -0.0098307375 0.21279518
60.718819 0.61690849 -10.812235 -0.98219335 -0.092713565 0.16340229
56.636505 24.678438 -21.847025 -0.94961423 -0.027904348 0.31217638
56.752247 19.682745 -20.417179 -0.9592098 -0.05585159 0.27712312
46.879848 49.817513 -34.597942 -0.80563861 -0.027219249 0.59178168
51.581554 36.04533 -30.149343 -0.89238763 -0.0046198014 0.45124614
52.246037 34.578323 -27.516335 -0.86787331 -0.025179368 0.4961471
58.188564 15.024183 -17.597813 -0.93895274 -0.058919244 0.33896333
59.85471 5.0430913 -13.123287 -0.96889079 -0.10839034 0.22249098
61.30629 -2.9674654 -9.5430241 -0.99418557 -0.086208671 0.064522289
61.452225 -6.2407818 -10.366173 -0.98920518 -0.09754286 0.10935504
40.43251 57.276062 -40.224888 -0.63997734 -0.10932436 0.76057684
54.534851 28.992378 -25.258934 -0.91797954 -0.09441641 0.38522604
57.24921 15.466495 -22.200068 -0.9407801 -0.077842712 0.32995966
58.144108 13.32245 -18.979454 -0.945723 -0.13392377 0.2960951
58.461693 6.8683515 -17.603781 -0.95479196 -0.0018711596 0.29726884
59.426571 3.3054144 -15.884575 -0.95804727 -0.12899601 0.25594017
61.782837 -10.095054 -8.3478804 -0.97320157 -0.22955614 0.013516766
61.923916 -9.2933187 -11.259454 -0.96711653 -0.22395529 0.12053855
63.362988 -12.491676 -8.6419334 -0.96445024 -0.2552228 0.068535596
46.217373 52.545074 -35.718521 -0.82351309 -0.026002368 0.56670111
45.27808 48.468792 -36.709774 -0.75950485 -0.014696193 0.65033561
56.086269 21.704851 -22.814341 -0.91840756 -0.047737099 0.39274496
59.262806 11.313703 -16.262541 -0.97343159 -0.03662328 0.22603004
38.98452 55.568512 -41.559078 -0.52091497 -0.20559777 0.82847875
46.354046 45.505486 -35.601948 -0.7147674 -0.12468155 0.68815839
49.478313 40.812695 -33.635315 -0.80863225 -0.046996739 0.58643425
50.816719 41.479626 -31.144569 -0.92038018 -0.032341938 0.38968483
50.158035 38.619633 -31.792965 -0.84884 0.025320608 0.52804315
53.780025 30.105703 -27.364845 -0.84898698 -0.082813151 0.5218842
55.746853 26.47386 -23.763111 -0.89072138 -0.08454062 0.44661883
57.888168 12.056247 -19.89967 -0.95138216 -0.0083709573 0.30789906
60.851826 -3.1990781 -12.542929 -0.97355801 -0.082733452 0.21293205
41.151802 54.658825 -40.422127 -0.52091497 -0.20559777 0.82847875
60.106861 -0.58077919 -14.68194 -0.9749276 -0.086774759 0.20490569
44.375824 42.230415 -37.881905 -0.7008273 -0.07236927 0.7096504
50.660835 32.901642 -30.821472 -0.85621428 -0.072748661 0.511473
53.043957 27.815607 -27.871012 -0.87005317 0.010282101 0.49285063
55.919514 15.363619 -23.906847 -0.88908422 -0.091330461 0.44853973
58.043835 4.2763281 -19.365545 -0.961496 -0.058588829 0.2685011
-57.063988 9.4450293 -74.838158 0.062026333 0.059624404 -0.996292
49.854092 31.971785 -32.252922 -0.81920999 0.011621321 0.57337582
52.036541 29.902884 -30.31044 -0.81438911 -0.044321824 0.57862413
57.299797 10.049058 -21.054483 -0.92917943 -0.018608466 0.36916056
58.943874 1.9340559 -18.449299 -0.90678716 -0.11453463 0.40573266
60.915207 -7.504396 -13.53093 -0.94851637 -0.16250226 0.27186352
62.552567 -14.300017 -11.428756 -0.97007269 -0.099295899 0.22158359
46.252758 39.316837 -36.893711 -0.66684341 -0.084142052 0.74043226
47.653397 41.383724 -35.714218 -0.68847936 -0.037913963 0.72426426
48.673016 38.190121 -33.860195 -0.7821455 0.055076424 0.62065685
53.60379 23.698734 -27.012852 -0.81117117 -0.11264631 0.57385719
54.264591 20.844955 -27.911417 -0.89735448 -0.029768055 0.44030535
59.646564 -0.33712578 -17.04871 -0.95219415 -0.055111583 0.30048138
60.000854 -4.6762753 -15.766621 -0.97399491 -0.082166977 0.21114579
49.425259 34.628262 -33.245522 -0.84957248 -0.020743806 0.52706379
50.671749 26.641411 -31.827658 -0.86492485 -0.20770945 0.45690456
56.147232 8.1323309 -23.084927 -0.93670726 -0.070385873 0.34296536
58.587883 -0.5709126 -19.16424 -0.91884726 -0.084442407 0.3854728
59.494041 -5.0175395 -17.835878 -0.90261602 -0.15031959 0.40334648
60.486286 -9.9276514 -15.970566 -0.95539576 -0.19309166 0.22346036
62.341351 -15.951398 -13.24533 -0.98007399 -0.068017751 0.1866243
48.662426 30.793243 -34.421631 -0.9111101 0.0071433755 0.41210112
52.250996 25.309149 -29.065565 -0.85524756 0.032611787 0.51719242
51.488533 21.696386 -30.321968 -0.86881614 -0.12652165 0.47869703
54.727612 17.609102 -25.375885 -0.91233796 -0.044865198 0.40697247
56.652424 12.394178 -23.194916 -0.92081487 0.03533113 0.38839626
57.910629 4.0522227 -21.845652 -0.9360438 -0.062933393 0.34621
60.59304 -7.7356896 -17.231564 -0.96727657 -0.10830364 0.22944793
57.685696 0.16110317 -20.701626 -0.9545297 -0.05909764 0.29219955
62.191982 -12.100385 -13.850451 -0.95169991 -0.16715765 0.25753763
42.636902 44.353451 -39.702091 -0.69743317 -0.028207606 0.71609443
49.669155 29.387766 -32.034241 -0.80469173 -0.040931661 0.59228009
51.290489 25.2253 -30.599392 -0.87351233 -0.033911474 0.48561943
55.908867 8.7634706 -25.370441 -0.94396085 -0.068213157 0.32293171
56.803635 6.7702751 -24.430483 -0.94489914 0.00091302273 0.32736039
56.555183 3.5407112 -23.848293 -0.91107154 -0.094939038 0.40116721
40.683945 43.13612 -41.172478 -0.59516758 -0.015644422 0.80344939
43.508049 38.799637 -39.164917 -0.65447247 -0.0639311 0.75337809
48.975574 26.487234 -34.407871 -0.83265489 -0.15866953 0.53057498
58.219395 -3.9019406 -21.991507 -0.94870389 -0.13226229 0.28717181
58.853504 -3.3384192 -18.818321 -0.94553328 -0.060035717 0.31994146
50.289577 23.302837 -33.625992 -0.83297914 -0.099475205 0.54428881
52.653496 16.822096 -30.434418 -0.84234607 -0.084339075 0.53229696
52.92561 14.099259 -29.365911 -0.8345868 -0.10611389 0.54055959
55.204979 11.947657 -26.880352 -0.894333 -0.062871017 0.44296241
51.027889 20.253252 -32.678833 -0.8707974 -0.085413054 0.48416573
54.14109 11.07804 -28.880152 -0.85055125 -0.071944274 0.52094781
56.977146 -0.2707465 -23.949982 -0.94308054 -0.061919715 0.32674909
59.701057 -10.483122 -19.771404 -0.90709543 -0.2390561 0.34645355
61.486794 -15.16776 -17.056475 -0.97025532 -0.11194365 0.21464692
48.208218 23.994484 -35.591831 -0.74667549 -0.086094692 0.6595934
55.176373 7.3020983 -27.027891 -0.88351125 0.015061012 0.46816775
58.575924 -8.0191402 -20.926374 -0.96291453 -0.15618455 0.22000462
54.020046 4.7148013 -29.152645 -0.89927888 -0.031574901 0.43623444
54.942078 4.5997677 -26.771049 -0.86878145 -0.034131475 0.49401811
61.137024 -13.269018 -19.487471 -0.9402985 -0.16136046 0.29966906
51.845417 -52.954674 42.77953 -0.92088091 -0.33341783 0.20201719
55.205719 -59.274372 47.680893 -0.94959593 -0.2963424 0.10221901
50.738991 16.652887 -33.226868 -0.84230191 -0.020168129 0.53862852
59.633595 -12.198037 -22.004093 -0.94139832 -0.18901539 0.27936083
42.622982 -26.366159 -45.072323 -0.57038152 -0.064394169 0.81885195
46.961662 -25.899208 -41.673046 -0.58504874 -0.25141543 0.77104354
55.235497 -28.355097 -30.812094 -0.7919597 -0.062622264 0.60735351
49.372532 19.687996 -35.137157 -0.77303708 -0.11795875 0.62329715
50.940434 14.051026 -32.83506 -0.82995236 -0.041175947 0.5563125
53.005173 8.5800943 -30.947227 -0.85557318 -0.061570205 0.51400757
58.763618 -8.9283199 -23.310703 -0.90536004 -0.17852303 0.38529575
61.505009 -27.953333 -21.567455 -0.94498396 0.023785314 0.32625094
49.195316 17.228354 -35.940659 -0.7940551 -0.0067847436 0.60780787
57.442787 -9.5814381 -24.762337 -0.87911505 -0.191588 0.43640667
45.620411 22.628948 -39.002243 -0.74443167 -0.028606422 0.66708559
54.607624 -42.351444 -34.101295 -0.83381522 -0.052975219 0.54949588
46.22934 19.00938 -38.477928 -0.70990622 -0.11369736 0.69505835
47.423302 16.041176 -37.85183 -0.75743991 -0.026683923 0.65235943
51.413517 10.324279 -33.590256 -0.83186483 -0.1202483 0.54179454
48.57148 -29.199183 -41.668938 -0.7504074 -0.13592269 0.64684904
49.061413 11.489146 -35.400219 -0.76939583 -0.071438767 0.63476491
52.435257 4.6911016 -31.721828 -0.85132712 -0.035369795 0.52344167
54.788567 -2.5531287 -28.2391 -0.89334625 -0.11025497 0.43563324
59.23801 -14.686929 -24.61729 -0.89320558 -0.13766138 0.42805749
43.644424 18.600132 -40.916103 -0.57117808 -0.16667141 0.80372643
53.70705 -0.079866312 -30.900986 -0.87087345 -0.098483376 0.48153976
53.951813 -4.3315921 -31.553215 -0.87210691 -0.14059024 0.46868309
56.56028 -7.7673321 -26.998695 -0.91523069 -0.15109341 0.37352842
57.992603 -14.047881 -26.306078 -0.9149459 -0.077115692 0.39614031
51.371429 5.7482433 -33.706013 -0.83165503 -0.050995607 0.55294615
51.836071 3.3805547 -32.737923 -0.85257912 -0.094275773 0.51402426
55.565845 -9.7194586 -28.833918 -0.81177533 -0.26391479 0.5209316
43.879589 -28.947721 -44.431419 -0.54331529 -0.1349974 0.82860374
46.447723 -28.101717 -42.949142 -0.48929763 -0.34891459 0.79927868
54.326447 -7.1423841 -30.091389 -0.90248424 -0.054728284 0.42723185
51.024693 0.9766041 -35.288284 -0.77933562 -0.057965845 0.62391979
51.806793 -0.85014212 -33.780525 -0.87258375 -0.027755413 0.48767531
52.578075 -2.1671607 -32.443474 -0.79082394 -0.10044866 0.60374457
57.57526 -10.332235 -26.797705 -0.91729552 -0.23230124 0.32342714
47.549152 7.2052011 -38.026531 -0.74637884 -0.052908637 0.66341484
43.91819 15.709652 -41.685997 -0.48072582 -0.26792073 0.83493787
41.04464 13.815458 -43.129745 -0.28297353 -0.27179745 0.91981095
46.300415 12.944036 -39.477108 -0.77661037 -0.04919596 0.62805736
45.181671 8.4733133 -40.320919 -0.4830347 -0.044178285 0.87448603
51.774403 -5.0755105 -34.390369 -0.74441904 -0.20943375 0.63401723
53.276489 -9.6690426 -34.364017 -0.76087493 -0.19166195 0.61994773
46.731628 6.7254715 -39.553078 -0.80970669 -0.045238104 0.58508849
54.325886 -10.027414 -31.923695 -0.88724959 -0.18357116 0.42318985
54.16053 -10.809704 -33.305576 -0.95397127 -0.16073593 0.2531853
49.702034 -4.9014487 -36.980827 -0.80202669 -0.12113729 0.58487517
27.871302 -56.630543 -56.03883 -0.46079633 -0.59304637 0.66027474
46.159988 -1.1822701 -40.795193 -0.79041255 -0.046200212 0.61083025
45.865662 -5.0970659 -40.668819 -0.66984332 -0.11045746 0.73424053
48.239822 -0.90395951 -38.082844 -0.70816433 -0.083392456 0.70110548
51.781281 -8.1257715 -35.24678 -0.79333657 -0.17393707 0.58340639
53.547058 -56.590855 43.500626 -0.919496 -0.34977359 0.17940331
48.441563 -4.8793149 -38.78688 -0.67094564 -0.18276425 0.71863008
50.552494 -9.2087088 -38.050091 -0.77882946 -0.17595367 0.60205072
30.78298 -54.279797 -52.777279 -0.33452263 -0.47473338 0.81407791
51.323719 -12.532994 -36.584839 -0.75656134 -0.10171053 0.64596432
53.67289 -58.490566 41.729794 -0.94622773 -0.26558548 0.18470891
35.305092 -57.502132 -51.080269 -0.64808834 -0.28964517 0.70433456
46.632607 -7.2458668 -41.073376 -0.66832787 -0.18520997 0.72044098
58.038815 -53.858757 -32.165409 -0.92126197 0.036654193 0.38721165
47.847878 -8.8053284 -39.783302 -0.61236525 -0.15911619 0.77439702
49.82288 -11.972594 -39.585079 -0.82044232 -0.052110236 0.56934959
52.212795 -15.752532 -36.870888 -0.65540236 -0.044717096 0.75395507
39.43824 -26.823727 -47.257435 -0.47042045 -0.10056561 0.87669331
52.601692 -18.501375 -35.8279 -0.76723617 0.12988006 0.6280762
41.748173 -58.918793 -48.13644 -0.49481353 -0.24226996 0.83454472
55.577465 -50.334797 -33.570122 -0.82482851 -0.18139131 0.53549522
50.013046 -16.431854 -38.358246 -0.73107708 0.034265328 0.68143398
55.648113 -51.796803 -35.671024 -0.78836459 -0.31327832 0.52946955
25.766582 -55.111263 -57.100822 -0.4350819 -0.81541765 0.38183483
28.039555 -54.964565 -53.685459 -0.34396207 -0.37536544 0.86069208
39.879185 -30.960733 -47.155724 -0.53585005 -0.042270306 0.84325433
-59.453587 -45.345474 -13.508429 0.98605603 -0.045309279 0.1601271
-25.510187 -40.660248 -56.046722 0.3742671 0.077157453 0.92410547
-26.241215 -45.690147 -55.30056 0.3265456 -0.065323994 0.94292134
-46.259357 7.9300423 -31.476984 0.82314056 -0.084945403 0.5614481
-13.099289 56.668655 -53.315975 0.33505195 -0.08714892 0.9381606
-15.314481 50.092827 -52.665314 0.32972556 0.021117982 0.94384062
34.863537 -59.13295 58.064495 0.077825531 0.2921868 0.95318943
23.603107 114.83897 -13.620469 -0.015924577 0.99950081 0.027285334
28.798143 115.06411 -15.447713 -0.028389743 0.99888664 0.037676893
-2.8523037 114.85169 -27.892639 -0.015379404 0.99635798 0.083869815
-5.0875025 114.44679 -26.925238 0.05905338 0.99729806 0.043695621
-1.7025212 114.55462 -24.907862 -0.051102426 0.99831724 -0.027407695
22.825241 115.09749 -18.703814 -0.023795296 0.99965566 0.011060733
2.5210185 114.87663 -29.390667 -0.049090713 0.99373353 0.10041802
3.085896 115.52746 -32.657696 -0.04063677 0.99910742 0.011531167
5.2954831 115.2306 -33.720764 0.070333421 0.99172884 -0.10736495
9.2192478 114.93513 -34.579861 0.024100361 0.99970305 0.0036185998
0.89930826 114.60954 -7.4235015 0.0096907765 0.99467045 0.10264828
58.076431 -53.098259 30.362972 -0.86229533 -0.038363837 -0.50495028
63.409309 -26.987349 -10.404757 -0.79894525 -0.51668555 0.30777031
60.056595 -41.726276 -25.007565 -0.89511532 0.14626597 0.42115885
59.08493 -58.610123 -26.741713 -0.87774736 -0.23915297 0.41516915
57.390957 -47.709221 -30.536772 -0.84913778 -0.17640398 0.49784201
57.82452 -56.480354 -36.488777 -0.8935985 -0.1036145 0.43674451
56.433079 -58.695553 -35.410553 -0.9133842 0.27406612 0.30102658
56.355526 -61.463001 -36.959137 -0.98590666 0.088410519 0.14202705
41.288624 -55.594246 -47.154671 -0.57857037 -0.079107627 0.81178713
58.639038 46.94825 3.9790239 -0.99252588 -0.076425657 -0.095139652
58.977123 44.512135 4.2467899 -0.99628377 -0.064267814 -0.057343423
58.305748 52.335144 3.1239495 -0.99514019 -0.04766481 -0.086162671
59.736633 28.666945 5.0832243 -0.99857819 -0.044338617 0.029591387
59.930584 31.881456 6.2994313 -0.98010826 -0.18013045 0.08331129
57.351105 54.550564 -9.2176666 -0.98772073 -0.10500473 0.11567947
58.431416 48.807579 -7.2454796 -0.96979892 -0.078687862 0.23086415
57.824303 48.845295 -10.799771 -0.98641503 -0.058543704 0.15348604
59.01437 45.962051 -7.1576309 -0.9898876 -0.02124765 0.14025384
61.560417 -0.5630545 5.2166791 -0.99656522 -0.070026822 -0.044204194
55.389095 58.47905 -18.182199 -0.97265851 -0.055903122 0.2254115
62.178116 -20.027502 9.8022976 -0.94110018 -0.27348155 -0.19884244
56.799107 45.831413 -15.843564 -0.95594716 -0.11445489 0.27030554
57.799744 43.898636 -12.138471 -0.97646785 0.012563869 0.21529661
57.828377 41.477009 -11.759213 -0.96163058 -0.13169883 0.24067007
57.663101 39.0802 -15.160556 -0.95087677 -0.13668297 0.2777608
62.365536 -7.0451179 5.9693532 -0.99404901 -0.10730083 -0.018791843
55.456085 35.316933 -22.18483 -0.91362953 -0.024126625 0.40583122
55.531185 31.963814 -23.15888 -0.90726894 -0.05962573 0.41630253
54.149296 30.820271 -24.619547 -0.84205568 -0.16729124 0.51279223
53.09325 32.140656 -27.104519 -0.88677835 -0.12864345 0.44393137
-53.875481 -11.790169 8.6638603 -0.98888087 0.033096343 0.14498003
-53.240883 -1.8700048 9.6996298 -0.97538561 0.051029902 0.21452016
-54.120789 -5.0342164 3.4390402 -0.99740803 0.04495775 0.056179546
-54.475716 -11.61552 2.4023814 -0.99745601 0.033148892 0.063109271
-56.502327 -20.944576 1.9283587 -0.98007756 0.14205106 0.13881445
-56.644936 -32.086769 3.2522323 -0.99915457 0.012800653 0.039066568
-57.106762 -63.559269 2.0429888 -0.99834335 -0.0067985863 0.057135217
-56.732113 -36.189816 2.0830948 -0.99891162 0.020288898 0.041997798
-56.746441 -38.308201 -1.5751338 -0.99976927 0.0074153184 0.020157546
-53.047691 21.964907 0.86286581 -0.99728352 0.059914019 0.042848483
-53.540897 10.895761 2.2029171 -0.99710804 0.043637622 0.062220216
-54.17107 -1.9500542 -1.9722259 -0.99916309 0.040397253 -0.0064127981
-56.063625 -20.486191 -4.8063917 -0.97601211 0.21359767 -0.042147409
-50.095356 81.533897 -3.5364101 -0.99559337 0.062052812 -0.070308991
-56.813942 -62.845844 -1.8491732 -0.9992224 0.026708478 -0.029003343
-53.978069 4.6898227 -2.0511651 -0.99913353 0.041583344 -0.0017151692
-54.509926 -9.589119 -4.5184116 -0.99835837 0.04104469 -0.039949134
-54.638546 -15.185342 -0.52894789 -0.99821186 0.051354568 0.030591544
-56.61779 -32.424648 -3.4513564 -0.9987213 0.048384629 -0.014646242
-53.263062 18.795231 -3.3045676 -0.99753529 0.052932389 -0.046061639
-56.839157 -59.494591 -1.5759798 -0.99999207 -0.0039352095 -0.00060075457
-51.913006 42.174526 -4.4829636 -0.99764585 0.048240397 -0.048739914
-53.455856 13.649218 -4.4214501 -0.99786615 0.045467898 -0.046858445
-55.774796 -22.978315 -2.3753474 -0.99957353 0.025020666 0.015055791
-52.902557 24.355581 -3.342052 -0.99688798 0.068535767 -0.038950771
-56.881992 -45.225376 -5.5020242 -0.99923652 0.0016026165 -0.039035868
-48.756615 114.51607 -1.8857284 -0.84971964 0.52719909 0.0061380314
-52.450935 32.372971 -5.2203984 -0.99776971 0.041512165 -0.052272946
-56.482071 -27.852259 -7.4051929 -0.99752522 0.058961574 -0.038302306
-50.484894 69.783882 -4.9692516 -0.99585313 0.052825361 -0.074066885
-56.904064 -34.815762 -4.7787008 -0.9975062 0.035740521 -0.060861286
-53.254105 8.6409531 -8.0238314 -0.99129826 0.052693591 -0.12062816
-53.900864 1.7863828 -6.5696387 -0.99612951 0.042068265 -0.077176556
-56.883926 -39.175468 -4.6466093 -0.99919772 0.0038857032 -0.039858826
-4.8539343 15.715317 -56.835407 -0.12658924 0.0620807 -0.99001068
-51.182465 57.396858 -5.3718505 -0.99660617 0.049233411 -0.065972164
-52.771 21.492966 -7.2518826 -0.99234682 0.052632209 -0.11170312
-56.508755 -56.405071 -10.190591 -0.98931652 -0.0011503847 -0.14577898
-54.660725 -15.924413 -5.323185 -0.98952889 0.12756802 -0.06751959
-54.08094 -15.487397 -10.399979 -0.98504841 0.11840866 -0.1251359
-50.538101 64.341148 -7.1539788 -0.99142617 0.064161345 -0.11383042
-50.91198 53.032101 -8.4993639 -0.991799 0.048389778 -0.11829262
-51.542522 35.700169 -10.814234 -0.98285288 0.049697723 -0.17756744
-56.471245 -52.558819 -10.214214 -0.98885024 0.011763199 -0.14844856
-48.692612 98.027184 -9.7745304 -0.98912728 0.031546351 -0.14363831
-52.329887 28.591463 -8.0618114 -0.99157935 0.048327927 -0.12014487
-55.910694 -21.049122 -9.3778057 -0.9881953 0.12953261 -0.081800424
-55.318184 -69.960678 5.359695 -0.98032558 -0.077102348 0.18170598
-55.645344 -27.481827 -12.392578 -0.98101044 0.037559625 -0.19028318
-56.194271 -31.713751 -10.481598 -0.99277616 0.024702618 -0.11741083
-53.570961 -11.213189 -11.589873 -0.98859996 0.044667874 -0.14378761
-55.600315 -22.465939 -12.65747 -0.95740801 0.067142136 -0.28082356
-54.179413 -24.074623 -15.959636 -0.92256212 0.15847792 -0.35180101
38.517101 -7.6718612 43.807178 0.6504488 0.06104834 0.75709283
38.706169 2.4866815 42.963493 0.6279577 0.045844749 0.776896
40.063179 -0.58308703 42.065651 0.67146796 0.043271512 0.7397691
44.262676 -23.696203 40.637451 0.69303793 0.074398674 0.71705174
40.927605 5.121284 40.754505 0.6699996 0.060564976 0.73988676
43.126198 -11.428516 39.911018 0.69651031 0.066160351 0.71449023
43.758095 -32.518127 42.519146 0.69689274 0.045131601 0.71575385
46.374878 -29.421867 39.293427 0.71505767 0.071915351 0.69535655
39.3008 9.6584024 41.907745 0.65339828 0.036954768 0.7561118
43.423897 4.9503322 38.465031 0.70819855 0.050267547 0.70422149
47.333935 -20.458862 38.779007 0.74733859 0.27918273 0.60294443
45.359035 -15.388354 37.832939 0.74780959 0.065529436 0.66067141
46.56374 -19.226992 36.737488 0.71004558 0.4196786 0.5654248
47.452385 -22.557047 37.831593 0.69265664 -0.019633802 0.72100025
43.868813 -6.7767959 38.634293 0.7161994 0.0480082 0.69624245
46.126358 11.339446 35.059143 0.77094644 0.038188107 0.63575405
43.177578 15.812033 38.252773 0.71788883 0.036485601 0.69520098
48.308289 -5.6575837 33.635799 0.78249776 0.041729927 0.62125343
42.510822 75.329468 34.261086 0.71668184 0.08239913 0.69251543
46.972984 3.5133166 34.705925 0.77269232 0.052724697 0.63258737
47.777077 -38.456387 38.351955 0.77945483 0.02998008 0.62574053
49.914684 -21.444956 35.63662 0.77815282 0.17302912 0.60377067
44.042309 29.530352 36.166607 0.74386489 0.057077277 0.66588837
51.166847 -42.135998 34.12278 0.78777653 0.083616167 0.61025935
50.572327 -28.8535 34.875561 0.76397818 0.023448445 0.64481592
45.391041 -1.5653255 36.930061 0.7376259 0.036453314 0.67422491
43.020412 34.077145 36.973125 0.75099111 0.054981124 0.65801942
44.003815 72.488037 32.889481 0.76451987 0.044235468 0.64308053
-45.860104 -24.353664 -31.969818 -0.74945784 -0.013904775 -0.66190606
42.205631 90.942909 33.848785 0.73124307 0.026043912 0.68161964
44.193081 51.949074 34.261997 0.75963926 0.055418652 0.6479792
-44.527802 -24.433395 -33.637047 -0.70460123 0.33093151 -0.62771118
40.600292 97.740234 34.47533 0.69922531 0.033062596 0.71413636
49.250069 -18.727715 33.649311 0.73928547 0.24218547 0.62833369
48.088104 -10.874193 34.470646 0.77769536 0.047478061 0.62684596
49.206478 2.1009395 31.86787 0.80693805 0.048088849 0.58867526
44.858521 41.377846 34.182121 0.76377976 0.050753165 0.64347851
43.658424 93.700722 32.210838 0.76611036 0.052480534 0.64056295
49.478237 -15.109002 32.675289 0.79974657 0.077708103 0.5952872
43.11768 110.86419 31.588375 0.77057308 -0.050957728 0.63531137
53.046711 -22.197937 31.249416 0.89855683 0.10907381 0.42508653
47.479725 40.069172 30.92215 0.80382764 0.053500816 0.59245151
46.087749 101.12426 27.392862 0.85368222 0.054429051 0.51794231
44.957279 109.35828 29.447302 0.84979683 -0.051727194 0.52456617
43.187843 114.1168 31.847057 0.72320908 0.34178728 0.60012507
53.729851 -73.691208 29.309164 0.88764554 -0.21828873 0.40550646
53.659973 52.2066 18.685038 0.92732793 0.053096071 0.37046424
45.753056 103.97491 29.021885 0.81561899 0.05961683 0.57550961
43.781147 106.75889 30.078117 0.78983819 0.012919657 0.61317915
-48.141678 76.968842 -15.870321 -0.95694548 0.024265578 -0.28925166
13.561881 -22.280807 56.942638 0.099251814 0.092481323 0.99075544
16.652149 -21.409559 56.360924 0.36496967 0.025558319 0.93066853
17.502918 -25.219593 56.946278 0.24397931 0.07732638 0.96669269
24.420258 -24.005276 53.470299 0.3313686 0.32659948 0.88517094
55.081501 49.95314 14.369637 0.96494061 0.037124157 0.25982994
-56.542606 -66.178062 6.2829432 -0.99274123 -0.08378575 0.0862827
-51.437439 -12.267157 -19.712948 -0.93839425 0.067663796 -0.33887732
-53.676903 -22.00404 -15.583776 -0.90138727 0.23061752 -0.36649233
58.055187 -17.085804 16.059631 0.94935822 0.055840317 0.30919376
58.238049 -21.146961 16.464697 0.9586457 0.057323508 0.27876922
57.874817 -51.704735 22.152575 0.91182357 0.0031419084 0.41057017
59.055439 -21.138859 12.513244 0.9681651 -0.091237038 0.23309246
-56.704018 -67.68882 2.3125343 -0.97785473 -0.18018712 0.10645531
59.761742 -18.83029 11.169461 0.96920496 -0.037451133 0.24339081
49.827744 77.659073 23.814037 0.85468149 0.082844622 0.51250005
59.9454 -68.091652 17.013968 0.92662519 0.083056025 0.36669815
59.363098 -72.696251 19.453808 0.93408626 0.051933847 0.35325027
61.670311 -69.420792 11.583351 0.95730776 0.14225207 0.25164667
62.979076 -70.303078 6.7980127 0.98640406 0.14394173 0.079295412
44.724072 112.35581 29.732735 0.88458818 0.10617653 0.45412597
63.261238 -72.783348 6.0219336 0.99287879 0.087737322 0.08058463
36.24588 30.943569 43.092808 0.6077652 0.048098944 0.79265881
63.071217 -71.192154 1.3120192 0.99621356 -0.067105241 -0.05527699
62.896194 -72.502434 4.0840654 0.99177247 0.058360081 -0.11393637
-42.06657 -20.963835 -42.959732 0.65030253 -0.33064047 0.68394709
57.258984 -23.908482 20.372005 0.90582287 0.20480117 0.37086555
62.834137 -72.562355 -1.2972804 0.99621356 -0.067105241 -0.05527699
62.658859 -69.776321 -3.5026889 0.99617219 -0.0063406597 -0.08718206
55.222595 -70.508369 27.754934 0.89309442 -0.10678612 0.43701154
58.305237 -45.379448 21.65695 0.88889742 1.394423e-05 0.45810634
17.480524 -18.965567 56.548309 0.48118523 0.30269641 0.8227002
56.611423 -48.834938 24.464773 0.91008604 0.031327128 0.41323364
-30.268579 115.07871 0.83047545 0.0013194643 0.99896473 -0.045471057
57.558765 -56.091312 22.971636 0.90595758 0.00456532 0.42334375
45.646664 106.23855 27.669476 0.89278358 0.037200861 0.44894722
57.824928 -41.824974 22.019136 0.91800904 -0.0046915156 0.39653161
49.305321 92.657005 23.839273 0.82703 0.00036396063 0.56215757
57.273842 -67.900673 23.580967 0.87760007 0.11126655 0.46630222
-56.295635 13.650306 -74.656136 0.06774199 0.018447472 -0.99753231
46.784138 107.4633 26.276474 0.85894573 0.025794644 0.51141661
-52.644802 11.654694 -74.445114 -0.15851393 0.1028396 -0.98198646
-48.819645 109.33221 -4.5245008 -0.99916166 -0.019565346 -0.035959195
-49.004105 107.24719 -6.1941533 -0.99169821 -0.022271462 -0.12664331
-15.045804 -24.895447 -58.572674 0.17390664 -0.12446681 0.97686458
-33.964195 116.1981 -15.472983 0.20191574 0.97797734 0.05282354
-56.25169 -71.252068 -8.3144426 -0.99816096 -0.023741728 -0.055776265
15.149768 -19.347254 57.281174 0.064629249 0.19936387 0.97779197
26.69742 -21.16077 51.85331 0.4372519 0.13497345 0.88915288
28.338282 -19.256203 51.002121 0.43917298 0.014080161 0.89829212
29.787485 -21.692211 49.829704 0.50727445 0.23730282 0.82846844
58.130135 -71.590935 23.053755 0.91789854 0.062675148 0.39183414
36.143105 -34.548729 48.35223 0.56782579 0.025291124 0.82276011
53.853973 -20.625431 28.154144 0.915905 0.1849758 0.356233
58.441372 -66.532249 20.210112 0.94036174 0.078018598 0.33110878
58.925957 -64.956406 18.778795 0.95988411 -0.064545989 0.27286661
51.341698 114.90992 13.053311 0.45805451 0.87859637 0.13510913
55.851738 -22.753414 22.976343 0.92664957 0.088011928 0.36547831
57.030277 -9.6800861 18.292238 0.93555677 0.026620742 0.35217172
50.872211 94.527283 21.24876 0.89453644 0.038732614 0.44531375
-57.008423 -66.897766 -2.5618463 -0.99919152 -0.04019738 0.0007120365
-56.801022 -72.791046 2.7351961 -0.92562246 0.34881833 0.14679511
-56.606075 -70.527168 -1.4150474 -0.99750233 0.00063798361 0.070629723
-49.73291 -71.956673 29.671825 0.85367155 0.25661808 -0.45320186
52.333839 100.54634 17.746883 0.86553121 0.049699359 0.4983831
51.484699 103.81955 19.041283 0.82467633 0.03203975 0.56469679
52.736572 103.24043 15.770568 0.95106006 0.040955856 0.30627987
-55.747757 -33.663128 -12.762835 -0.98241115 0.022255184 -0.18539953
-56.347996 -70.066994 -4.7502189 -0.99810266 -0.056218393 -0.025111446
52.336884 107.74786 16.800673 0.89836001 0.026916668 0.43843439
51.233704 113.51685 19.181503 0.84272093 0.35402867 0.40556765
52.501564 114.57926 9.8413134 0.54766899 0.83040082 0.10243636
52.896637 112.80097 14.624866 0.87404424 0.40275523 0.27172568
53.068062 108.55475 13.627657 0.96010059 0.024848916 0.27854869
-53.110058 -18.787354 -15.966166 -0.93007123 0.097133383 -0.35430571
36.764 -61.945793 58.771564 0.030539205 0.48497131 0.87399673
37.494492 -65.122948 61.279137 -0.0010384159 0.50755161 0.86162072
42.353138 -65.762451 60.76585 0.14001265 0.46326163 0.87509149
1.0918759 16.512178 -57.293957 -0.067271933 0.054055266 -0.99626929
39.71645 -62.475014 58.87006 0.021987284 0.50275636 0.8641485
18.941668 -18.049408 54.585831 0.36087269 0.12602009 0.9240616
45.976414 -70.501503 62.405815 0.261812 0.43064845 0.86371076
18.758589 -21.844206 55.560795 0.38564983 0.21639536 0.89690983
5.5736508 22.285923 -57.004204 0.050841551 0.064116813 -0.99664646
49.684586 -70.411789 60.527996 0.386305 0.24856563 0.88824749
23.223526 -19.07131 53.051277 0.35176042 0.063301243 0.93394738
55.535561 -74.003494 60.1544 0.35863462 0.48156768 0.79967105
55.074715 -71.55452 59.683281 0.49592713 0.36493441 0.78795886
57.635509 -74.22258 52.243835 0.99149543 0.014008914 0.12938532
56.967159 -72.90255 57.222561 0.91564763 0.28180107 0.28666615
-53.433517 15.755872 -74.474907 -0.21808597 -0.016470483 -0.97579056
32.104092 -19.476627 49.274811 0.46605474 0.075244054 0.88155049
57.601402 -71.775383 52.240238 0.94790155 0.2627593 0.18011148
22.692553 13.630562 51.491673 0.35683534 0.035641164 0.93348712
62.363651 -68.97879 4.6566801 0.96974421 0.17433272 -0.17089279
35.79118 -20.80698 47.547283 0.52681696 0.16578005 0.83365512
36.149506 -3.8971639 45.251934 0.60108101 0.039915755 0.79819071
16.98793 51.980507 51.329067 0.24185716 0.043821603 0.96932179
11.909609 -18.323601 56.495747 0.15877558 0.17487803 0.97170365
34.108978 6.9806962 46.172073 0.53887415 0.055577766 0.8405509
14.087325 82.192444 50.523174 0.21761677 0.046551518 0.97492349
11.572425 92.303093 50.299343 0.14724657 0.073046163 0.98639882
34.381367 21.89229 45.103489 0.57405502 0.062145252 0.81645501
29.471745 45.40741 46.561741 0.47207996 0.048810389 0.88020337
24.639879 49.307987 48.90744 0.43149543 0.059666961 0.90013975
9.8273115 95.720581 50.351151 0.13620517 0.047437683 0.98954421
25.148085 53.69244 48.353371 0.40915096 0.051616188 0.91100562
54.260345 -57.17458 29.69833 0.83274978 0.052853197 0.551121
17.238964 85.081322 49.533508 0.3077026 0.052435677 0.9500367
15.750501 93.352531 49.224251 0.25405723 0.065296702 0.96498251
14.34919 95.187096 49.669319 0.20069598 0.059591107 0.97783947
9.1538658 110.63065 49.427082 0.13280548 0.084797807 0.987508
4.9111009 112.82439 49.904274 0.10320848 0.089810126 0.99059683
12.565055 98.744232 49.533596 0.17587389 0.060242023 0.98256773
12.318151 103.25327 49.512794 0.17253107 0.060300667 0.98315656
15.714214 101.90784 48.911564 0.25002879 0.06322816 0.96617174
12.907919 106.52069 49.142223 0.17913197 0.074846052 0.98097396
20.348766 97.399651 47.816841 0.29887635 0.058193013 0.95251584
51.306839 -20.858404 32.395935 0.72512859 0.41149089 0.55214465
17.259882 99.641045 48.625156 0.2916036 0.05287772 0.95507658
14.766541 109.53325 48.571701 0.20246832 0.056272767 0.97767067
22.221079 100.37407 46.914227 0.3731482 0.060961794 0.92576677
31.638832 62.913673 44.182796 0.53679478 0.054209232 0.84196955
34.109245 50.306339 43.44096 0.58833152 0.052925169 0.80688602
21.035595 107.02081 46.895721 0.34480557 0.051480547 0.93726134
38.187519 49.785091 40.283371 0.65667349 0.05101382 0.75244766
28.459492 89.787247 44.685215 0.46084449 0.068943791 0.88479894
60.862988 -69.425636 14.790338 0.94629031 0.08742696 0.31127357
54.483395 -18.29348 25.528173 0.89859182 0.11904516 0.42232814
42.311646 39.893288 37.157001 0.7078684 0.063558333 0.70347899
42.60117 48.572693 36.147453 0.7190789 0.046970434 0.69333917
28.51372 97.043747 44.137913 0.48034668 0.060088433 0.875018
57.053307 -16.74386 19.449669 0.93766165 0.10100175 0.33254975
26.252886 114.58495 44.224766 0.32583821 0.59665155 0.73337328
32.501251 101.32655 41.295712 0.53311574 0.038663477 0.8451584
28.859089 114.95812 42.923088 0.39252183 0.59272772 0.70327836
35.108738 99.454613 39.80291 0.61678958 0.021578124 0.78683221
15.221238 20.769377 -55.888847 0.21689434 0.057210349 -0.97451729
39.566105 93.836037 35.785931 0.67647433 0.065750927 0.73352534
34.54356 104.18049 40.007835 0.59852296 0.038560934 0.80017704
-47.818314 109.65505 8.3315392 -0.97582352 0.03171365 0.21624692
38.693478 102.88285 36.486874 0.67158121 0.023606768 0.74055475
60.246391 -19.679836 7.601377 0.97409099 -0.17682542 0.1409947
36.637394 107.16519 38.199078 0.62860847 0.041598734 0.77660865
38.412441 98.043221 36.792065 0.6913377 0.0046731215 0.72251678
49.676132 116.08135 3.9053714 0.23655987 0.971439 0.018590091
52.522789 38.120426 22.728321 0.90816289 0.047816973 0.41587692
36.369362 111.51326 38.264076 0.64282495 0.0094810482 0.76595443
60.092953 -21.992495 4.020206 0.97947007 -0.18586282 0.078060701
48.437996 65.32383 27.452673 0.84527344 0.060294013 0.53092128
44.39809 97.207611 30.726746 0.81362391 0.053429227 0.57893127
40.97261 110.12362 33.962643 0.69189113 0.035818443 0.72111285
41.538551 107.52486 33.618107 0.74915457 0.030804854 0.66167849
16.501478 23.627489 -55.307514 0.2437195 0.068103962 -0.96745163
21.913368 22.150484 -53.721035 0.33916223 0.065438285 -0.93844914
48.335361 -44.609718 38.400314 0.79635447 0.15263556 0.58525378
51.787941 -18.244417 30.79125 0.8141889 0.21488589 0.53937048
57.617104 -19.580559 17.828089 0.94577402 0.058045402 0.31959698
53.627514 114.81142 -1.1805962 0.66518772 0.74667209 -0.0024556476
48.617554 116.16769 -0.64095312 0.15758856 0.98736221 0.016784942
50.546253 115.96578 -4.9531655 0.24235991 0.97015625 -0.0076460601
43.829494 116.35903 15.432655 0.081685193 0.99663341 -0.0070232386
42.512062 116.23932 10.911077 -0.062798634 0.99773079 -0.024278175
46.800774 116.07659 -14.31356 0.099636495 0.99501663 -0.0038113929
48.119652 115.93679 -10.655975 0.12861486 0.99012083 -0.055848517
44.335949 116.17879 -17.013861 0.037749071 0.9985463 0.038474288
-35.365398 116.3363 21.17186 -0.08892981 0.99509233 0.043390628
-35.62537 115.92264 4.266552 0.10201556 0.99444711 -0.025838453
46.482601 116.34155 -17.883339 -0.044154167 0.99601865 0.077441648
-38.135212 116.41176 1.7517349 0.083617896 0.99601954 0.030871715
-33.447327 115.09016 1.8593622 0.17639133 0.98391306 -0.028304487
-35.778374 116.04625 -2.4146345 0.24461596 0.96951103 0.014540798
12.917135 113.56197 48.77383 0.14118361 0.27580756 0.95078778
17.088928 114.64347 47.650826 0.22396915 0.55191076 0.80326355
20.921972 114.92394 46.315056 0.26980576 0.48117468 0.83407187
32.366604 114.45674 40.817211 0.45550132 0.5424422 0.70588601
44.819523 115.46502 23.74165 0.16544485 0.96570337 0.20011263
5.0680456 116.09132 -45.557907 0.021678338 0.9909572 -0.13241535
9.6560383 116.25414 -44.784363 0.022268206 0.98647916 -0.16236624
44.299519 116.52289 -21.479738 0.099015772 0.99503595 0.0099594453
38.178566 116.27795 -29.24655 0.04295655 0.99682069 -0.067105934
-51.680683 -20.474369 -20.704573 -0.93889189 0.12666468 -0.32005954
40.899544 114.36412 33.728561 0.59003657 0.53392738 0.60562235
36.36372 114.48271 38.445755 0.45037782 0.69757003 0.55727553
-55.471058 19.148283 -74.739449 -0.31853276 0.058757041 -0.94608903
42.099106 115.31245 29.521246 0.2488611 0.95213252 0.17751576
46.761654 114.50468 25.026789 0.60514832 0.69453764 0.38911828
-48.841503 111.45412 -1.353029 -0.99791789 0.038290139 0.05189937
46.570915 115.60058 20.508577 0.37334031 0.9116053 0.1720258
38.617191 -71.993622 64.471153 -0.088305756 0.40673631 0.90926766
34.321281 -70.370972 62.308414 -0.34401292 0.31255364 0.88541818
30.843517 -68.969337 60.373562 -0.35615903 0.23668696 0.90395248
42.017998 -74.063026 64.907463 0.092325039 0.21246003 0.97279841
30.485207 -65.809937 59.487251 -0.34249353 0.31794795 0.88408554
47.925938 115.4208 17.50913 0.30386233 0.94807333 0.093940176
40.070759 -70.602615 63.239815 -0.015121662 0.45272332 0.89152282
34.735554 -68.240013 61.696095 -0.30067363 0.29092044 0.90827346
48.046288 -73.460915 63.481441 0.36133304 0.50893539 0.7812959
33.972706 -64.924255 60.66946 -0.22232591 0.38097855 0.89745563
45.425022 -73.326759 64.116203 0.25132164 0.3829459 0.88892621
29.959433 -63.644863 58.598324 -0.25112453 0.35408992 0.90086448
42.208382 -71.425247 64.313301 0.15967318 0.4428277 0.88227445
37.212349 -68.585251 62.786385 -0.12970796 0.37286705 0.91877419
29.448133 -59.846714 56.854279 -0.26895556 0.37178037 0.88850564
32.890259 -60.879372 58.328327 -0.18887083 0.38903099 0.9016555
51.013554 114.23169 16.614801 0.47723335 0.86169362 0.17243098
-33.52713 115.73843 5.5038342 0.11337003 0.99258566 -0.043829408
51.377232 -73.865845 61.85973 0.4331682 0.58912086 0.68213046
48.25547 115.78158 13.312108 0.18753682 0.97985768 0.068620719
8.6888247 -21.622578 57.28664 -0.29590619 0.038784325 0.95442939
11.967443 -22.840311 57.486179 0.23842543 0.10592055 0.96536738
40.124214 116.47822 -25.801058 0.01719138 0.99977797 0.012181604
10.804583 -19.033375 57.837383 0.11653229 0.32798225 0.93746883
48.488152 116.00859 9.8180475 0.20939884 0.9742803 0.083247311
-32.291855 116.19658 -19.198509 0.15685448 0.98421311 0.081982389
-28.323372 115.21532 -20.273233 0.15633103 0.98054183 0.11873665
-35.450859 116.46944 -21.71883 -0.055649765 0.9975329 -0.042792499
42.064632 115.75761 6.5518584 -0.21402414 0.97682828 0.00044537394
45.668114 116.64302 7.8026624 -0.00071858137 0.99961126 0.027869336
-24.513889 115.0429 -23.589638 0.084329419 0.99315482 0.080820888
43.865211 116.50535 4.0940385 -0.10254914 0.99471802 -0.0044292212
-29.598156 116.0993 -23.829737 0.1293004 0.98748529 0.09030053
-26.884344 116.27507 -28.274784 0.07478638 0.99429405 0.076068878
-20.40983 115.11051 -28.903702 0.11062533 0.9878729 0.10894603
44.901386 116.59219 -2.104856 -0.098704323 0.99509752 -0.0061856294
42.487099 116.06501 -4.1994238 -0.20960772 0.97769141 0.013565051
44.41539 116.44447 -8.4644604 -0.012184679 0.99988377 -0.0091687087
41.448448 116.06456 -9.1324654 -0.31032833 0.94901276 0.055417433
13.873902 116.27264 -42.860096 0.11704296 0.99212343 -0.044632431
-15.34714 115.0996 -31.799614 0.053211551 0.99532866 0.08055722
-16.238245 115.5978 -33.984528 0.1294044 0.96900332 0.21044497
41.622097 116.38943 -13.817037 -0.086665846 0.99570554 0.032551546
-18.743498 116.56905 -36.936966 0.039676912 0.99520844 0.089364082
47.158821 116.46461 -5.7666659 0.056411862 0.99807304 -0.025846427
-12.895925 116.26241 -37.57156 0.059707008 0.98186409 0.17993875
-18.092451 116.42023 -39.278072 -0.0047291573 0.99990821 0.012696653
38.598949 115.90826 -16.838003 -0.26479945 0.95800465 0.11003772
35.58683 115.94075 -22.080978 -0.13375665 0.98353875 0.12149332
40.972107 116.52319 -19.328047 -0.094417967 0.99496257 0.033686504
-7.7020984 116.14847 -38.585911 0.044435553 0.96447068 0.26042587
42.043072 116.25327 -23.810125 -0.046396021 0.99775153 0.048365086
-8.3193245 116.6121 -41.286648 0.00074115879 0.99817061 0.060456283
4.9272265 116.88932 -42.092682 -0.027752478 0.99501628 0.095772833
33.142807 116.53773 -29.385979 0.029571379 0.99930108 0.02286759
-0.58796906 116.40424 -40.41798 0.025420573 0.97436118 0.22354884
-3.6166024 116.59071 -42.626888 0.027992805 0.99480379 0.097886533
29.711586 117.00587 -31.876162 -0.10403918 0.990336 0.091708697
-10.718695 115.1141 -47.265301 -0.15432951 0.91148746 -0.3812781
0.55045581 116.46216 -43.922031 0.014796848 0.9996838 -0.020329988
18.869944 27.037621 -54.390377 0.29767266 0.063295111 -0.95256746
-11.896499 112.93949 45.687122 -0.30971062 0.41003016 0.85787803
-17.59392 115.81818 42.811039 -0.18238245 0.90322292 0.38849062
-21.8078 112.47009 41.559776 -0.46689767 0.27332696 0.84101069
-56.367378 21.266401 -73.475647 -0.97102207 0.2040703 0.12438428
-13.011713 115.58535 44.703125 -0.14971609 0.84382164 0.51531559
-23.327761 115.04066 39.88052 -0.33883554 0.79322678 0.50594646
-26.856152 114.8221 38.077011 -0.22386563 0.93477416 0.27582857
-19.912777 116.61693 38.316742 -0.09745533 0.9842391 0.14756662
-4.833344 115.92863 45.67347 -0.021074116 0.96696258 0.25404596
-9.6745653 116.44695 44.082272 -0.077888034 0.94925922 0.30469739
-10.570217 116.60004 40.078362 -0.026304951 0.9996531 0.0013052163
0.51052845 116.60505 43.465488 -0.0083437515 0.98597544 0.16668159
-2.2651966 116.3604 41.233757 3.258483e-05 0.99963725 -0.026933724
-6.5788403 116.52981 40.044132 0.042150378 0.99237847 -0.11579423
-24.621754 116.29339 35.789093 -0.19137399 0.9520216 0.23881114
-28.293434 115.94909 34.207851 -0.19144845 0.95718139 0.21714315
-32.605583 115.21336 32.597797 -0.31291246 0.90328401 0.2935369
8.4569759 116.65708 42.119789 -0.0024930376 0.99772418 0.06738098
33.724197 116.27581 -32.861187 0.1560428 0.98334765 -0.093155563
-36.218906 115.78165 26.003492 -0.23800671 0.95624757 0.17012776
-39.193619 115.54649 22.804918 -0.26658478 0.94610363 0.18390329
26.572672 116.34293 -33.846111 -0.12093487 0.98212135 0.14426498
-32.272072 116.62933 24.585323 -0.043173097 0.99795073 0.047226459
10.828836 115.98812 -39.370159 -0.011861192 0.93642002 0.35068068
8.0562716 116.94334 -40.912701 0.02954478 0.99136525 0.12775682
19.745413 116.11604 36.379585 -0.0014784265 0.99929565 -0.037497733
-38.083572 116.45354 17.690315 -0.084653929 0.99511486 0.050793111
-40.840164 116.28113 12.384435 -0.089062713 0.99602288 0.0025242213
30.355045 116.48439 -34.618801 0.0072293119 0.99413091 -0.10794161
27.279123 116.39581 -37.369125 0.034685824 0.99915707 0.021954563
31.778482 115.48652 38.184265 0.13793525 0.96990412 0.20064847
4.3329802 116.49848 -48.584057 -0.014311137 0.94026595 -0.34013984
2.6598899 116.33896 -47.808369 -0.01963594 0.97054851 -0.24010415
-35.697292 116.17522 10.718342 0.06899406 0.99738675 -0.021436878
-40.142212 116.29348 8.2111559 -0.052528732 0.99861646 0.002413081
25.967325 116.0718 33.139877 -0.07649637 0.98893028 -0.12714283
35.068581 115.8681 33.659531 0.14017794 0.97608811 0.16613893
32.067768 116.13329 33.612663 0.038950194 0.99722409 0.063458078
34.790802 116.39733 28.619198 0.023097169 0.99864256 0.046686124
-41.759865 116.27869 5.6791954 -0.07632263 0.99668884 0.028037952
37.934139 115.83975 31.246611 0.19149649 0.96249038 0.19220151
-32.346088 115.05453 -1.937095 0.086180478 0.99608564 -0.019652894
35.401371 116.49845 25.51107 -0.013202064 0.9988116 -0.046917073
38.993599 116.07632 28.132481 0.14781667 0.98582369 0.079384431
40.516617 116.13737 24.156429 0.093655087 0.99559832 -0.0035554916
-33.009491 115.14491 -6.3124881 0.23396333 0.97197121 0.023087367
40.925869 116.18321 21.744488 -0.015321909 0.99925464 0.035429507
-35.542152 116.19255 -8.7964211 0.16428316 0.98549473 0.042558216
43.407276 116.52145 18.694944 0.11396023 0.99117494 0.067714714
40.708534 116.26015 17.444315 -0.10265858 0.99468523 0.0079071792
-36.9272 116.5544 -13.567105 0.033388402 0.99925971 0.019112144
49.544277 115.11129 -13.777273 0.34603435 0.93398368 -0.089076601
35.708824 114.58621 -15.753141 -0.087329805 0.99580038 0.027478278
-42.26469 115.061 -23.459648 -0.35820559 0.91554004 -0.1829626
34.49765 114.94062 -19.161495 -0.13806303 0.98154426 0.13232349
-21.854425 116.65009 -42.070454 -0.067490041 0.99422842 -0.083396859
-6.764379 116.80859 -44.292446 -0.088556305 0.98746616 -0.13064559
-34.222702 116.48959 -26.560062 -0.079621293 0.99495506 -0.06103247
-37.835545 115.45447 -27.823133 -0.260759 0.94135767 -0.21412751
31.252432 114.79695 -22.766897 -0.1398757 0.98898762 0.048355181
-31.923609 115.94242 -31.761606 -0.13264547 0.98464847 -0.11345753
34.949173 116.63469 -26.014568 -0.098218277 0.98951143 0.10592591
-34.697372 115.12503 -32.885548 -0.28391361 0.92708933 -0.24474157
32.233887 115.39291 -25.306253 -0.27992651 0.94160295 0.18714941
30.287861 116.23199 -29.341944 -0.31833154 0.89460272 0.31360954
-35.127686 114.27907 -34.81871 -0.70665592 0.29972547 -0.6409384
-28.587252 116.48835 -33.148033 -0.087986365 0.99579436 -0.025534617
25.704594 114.36703 -28.604744 -0.058526453 0.99791127 0.027345521
-25.499104 116.36956 -33.50087 0.030672455 0.99942499 0.014448643
-21.737108 116.33779 -32.934578 0.093932159 0.98743641 0.12706742
-30.606384 115.74153 -34.837612 -0.22288859 0.96077907 -0.1649975
-47.980892 62.889481 -18.811926 -0.94123983 0.057234962 -0.33285391
-6.347599 115.46468 -47.364193 -0.13432422 0.89104545 -0.43358397
-25.132866 116.45618 -36.293819 -0.068538569 0.99191839 -0.10677279
-23.817034 116.08272 -39.564667 -0.032135069 0.99836135 0.047350414
24.248466 116.13161 -34.763985 -0.18378888 0.9506228 0.25007617
-10.212944 115.23022 -36.034668 0.063319832 0.97405684 0.21726459
11.388286 116.18345 44.705555 0.056009598 0.97281408 0.22471271
-0.1828084 115.27242 47.172169 -0.0021293631 0.94987398 0.31262577
-21.816658 116.20388 -37.915512 -0.031686574 0.99948275 0.0055022538
6.6300302 114.65962 49.03302 0.084200509 0.75404626 0.65140188
4.5013099 115.79836 46.359165 -0.00026154352 0.96679509 0.2555528
-8.7604742 114.55093 46.806976 -0.30756959 0.72955728 0.61085767
-9.3957376 116.22962 -45.458858 -0.07475318 0.96492523 -0.25165731
-13.575607 116.15515 -44.215588 -0.080029003 0.93459868 -0.34658426
13.322126 115.15776 46.999165 0.090944178 0.90258402 0.4207983
19.888618 114.9591 44.406052 0.042806469 0.97218066 0.23028763
18.712847 116.00774 42.150326 0.092044599 0.98325998 0.15725017
21.60832 115.43 43.490341 0.08860065 0.9690938 0.23023298
8.4630508 116.42228 40.062866 -0.035223793 0.97610772 -0.21441299
-9.8602228 115.99734 37.285793 0.085903965 0.9431411 -0.32110015
-16.418018 116.46661 37.323067 0.074469097 0.99368513 -0.083930641
25.050711 115.63799 40.595692 0.056670003 0.98624843 0.15525007
-2.2569642 115.23502 -36.985233 0.050922588 0.99265307 0.10975753
-18.366039 116.56477 34.596481 0.12598558 0.98741305 -0.095618874
-23.728704 116.42723 33.30772 -0.065335602 0.99730384 0.033411812
-29.648468 116.29552 29.849802 -0.11091754 0.98723298 0.11431746
-37.603851 114.3289 30.06337 -0.60201603 0.60870153 0.51677763
27.717703 116.31142 35.865181 0.053601272 0.9946509 0.088298313
22.637161 116.45035 35.253651 -0.045096889 0.99882954 -0.017487094
-12.364387 116.64156 -41.717396 -0.027924173 0.99900717 -0.03471268
29.812319 116.22451 30.285196 -0.069487445 0.99651444 -0.046155639
-26.771482 114.09103 20.115284 -0.076014459 0.96685219 -0.24375936
-30.311058 116.1298 21.945477 0.27792695 0.94013035 -0.19725981
-31.440598 116.16197 19.876808 0.123434 0.98869359 -0.085141823
-42.609982 115.37026 18.795126 -0.33598095 0.92554951 0.17457093
43.062916 115.35207 24.954105 0.2150432 0.97056013 0.1084872
-56.247894 -65.293678 -10.837001 -0.98730695 0.0081684664 -0.1586137
-52.603767 -15.532812 -17.669907 -0.95272708 0.05876423 -0.29809049
-45.031662 115.52081 9.0939856 -0.23928002 0.96834511 0.071083024
-16.314026 114.41465 -46.131962 0.10105318 0.93004388 -0.3532798
-46.212181 -23.878267 -34.096046 -0.86313599 0.12840806 -0.4883725
-46.357021 -22.912565 -31.59782 -0.71308082 0.32252151 -0.62249148
-46.283657 -20.573759 -31.435822 -0.78834933 -0.030995315 -0.61444664
-48.194317 -23.690777 -29.669706 -0.8716433 0.26778656 -0.41052189
-47.201714 38.865124 21.730431 -0.89967179 0.033098307 0.43531039
-34.184097 113.2996 34.281525 -0.6984036 0.25566947 0.66848004
-50.466324 41.125454 12.463467 -0.96642607 0.055273291 0.25092936
-49.365524 50.848713 14.53086 -0.95322627 0.039835334 0.29962111
-44.163292 -22.10409 -33.248642 -0.84800208 0.24560538 -0.46964934
-46.472904 68.111969 19.822302 -0.92033809 0.044298485 0.388607
-34.817219 115.35147 29.10885 -0.20794195 0.96003276 0.18734245
-43.961067 -19.626379 -35.278347 -0.80663413 -0.0043441691 -0.59103519
-46.508526 78.532898 18.303434 -0.93376976 0.049931739 0.3543739
-45.091743 102.7804 18.865015 -0.91767031 0.049612142 0.39423311
-44.551083 100.65684 20.355139 -0.89552766 0.035544086 0.44358411
-43.318691 110.81097 21.32037 -0.9102996 0.0018574975 0.41394582
-42.572659 113.9556 23.152912 -0.75355637 0.51276922 0.4113642
-45.702297 100.81229 16.961208 -0.94367641 0.0327437 0.32924539
-44.941643 106.4531 18.716589 -0.91807675 0.073635913 0.38950321
-47.530178 99.284874 12.081118 -0.96676034 0.034397833 0.25336009
-46.031178 114.82499 14.338302 -0.77486718 0.57769227 0.25661758
-43.894939 115.4352 13.480757 -0.21957579 0.9738906 0.057651486
-47.430416 115.23671 7.0397358 -0.71039593 0.69371593 0.11872558
-47.750454 115.20653 -4.8744698 -0.36897525 0.9288373 -0.033442769
-43.385044 116.02591 -5.840436 -0.16466096 0.98576307 -0.034028299
-45.18433 115.60052 3.8347499 -0.21175182 0.97730529 0.0059686974
-40.718594 116.3638 -12.336441 -0.11720177 0.99310637 0.0018657502
-42.930927 116.2164 -1.958264 -0.17124736 0.98516053 0.011532413
-38.743568 116.61182 -3.5442669 0.057613384 0.99833888 0.00051225175
