# .PCD v0.7 - Point Cloud Data file format
VERSION 0.7
FIELDS x y z normal_x normal_y normal_z
SIZE 4 4 4 4 4 4
TYPE F F F F F F
COUNT 1 1 1 1 1 1
WIDTH 723
HEIGHT 1
VIEWPOINT 0 0 0 1 0 0 0
POINTS 723
DATA ascii
-6.7223783 -50.490063 -7.5785756 -0.0086342171 -0.9995476 -0.028813167
-4.9148636 -50.461475 -10.127641 0.006922733 -0.99986029 0.015216142
1.3113344 -50.629986 -15.193398 -0.0072353771 -0.99955404 0.02897149
6.5024018 -50.819077 -20.68148 0.23857111 -0.96369559 0.11989439
-21.952209 -50.692295 3.483165 0.050212804 -0.99871999 0.0060897875
-19.638775 -50.661407 1.6029499 0.035985857 -0.99928445 -0.011644245
-13.877058 -50.290226 -2.8428292 0.013346284 -0.99987781 0.0081348466
-2.4809382 -50.472015 -11.312363 -0.0010211027 -0.99954617 0.030107802
-0.2752479 -50.532837 -13.604291 -0.00012374509 -0.99950922 0.031325251
-8.8764763 -50.474686 -7.6782312 -0.0022897329 -0.99998814 0.0042953161
-6.6915927 -50.457035 -10.027111 0.011290991 -0.99975938 0.018809475
2.6470909 -50.70895 -17.833796 -0.005477238 -0.9978345 0.065545015
4.2469559 -50.927147 -19.889296 0.0068770852 -0.97124982 0.23796314
-16.926678 -50.507923 -0.92277169 0.030870704 -0.99952114 -0.0021389269
-3.0299413 -50.623585 -13.956094 0.012263939 -0.99906296 0.041506995
-15.251112 -50.448639 -4.7993803 0.0199196 -0.99900037 0.040019475
-12.471191 -50.484924 -4.949451 0.00057814032 -0.99957317 0.029208489
-9.1148129 -50.528946 -10.191144 0.007214162 -0.99966526 0.024847601
-19.190643 -50.612785 -3.0501893 0.057158526 -0.99833125 0.0082218274
-7.3758817 -50.570293 -12.672568 0.020191012 -0.99855179 0.049867067
-19.624544 -50.560471 -0.59121966 0.047355946 -0.9988777 0.00081699976
-12.408453 -50.42271 -7.2010422 0.013182169 -0.99989277 0.006381915
-15.674189 -50.463242 -2.8996592 0.046123866 -0.99882555 -0.014835059
5.0756111 -51.954651 -21.139511 0.02794422 -0.8774212 0.47890621
-22.012184 -50.715397 0.55940139 0.063445576 -0.99798232 0.0024380838
-10.501882 -50.455647 -8.7879906 -0.0036582663 -0.99977458 0.020916644
-1.1458415 -50.647034 -16.506725 0.0024861461 -0.99897355 0.045228884
-20.912859 -50.737476 -1.7124581 0.057126187 -0.99817139 0.019761581
-5.239007 -50.56916 -13.487177 0.0093921255 -0.99909061 0.041589089
0.75622016 -50.879971 -19.400518 -0.013085712 -0.99732614 0.071898088
-17.509123 -50.485863 -5.035944 0.045831572 -0.99865139 0.024389174
-9.9767542 -50.537064 -11.110156 0.027314629 -0.99783105 0.059892204
1.6916168 -50.968056 -20.786404 -0.089789525 -0.92367148 0.37251687
-14.10695 -50.502464 -7.2244182 0.029669959 -0.99937052 0.019450208
-3.2528698 -50.69548 -16.216188 0.0041375556 -0.99955344 0.029594112
-16.669353 -50.625099 -7.1820569 0.035120849 -0.99872392 0.036290631
1.7701927 -52.224903 -22.493202 -0.064538829 -0.94253176 0.32782421
-15.697211 -50.577034 -9.0579042 0.045275398 -0.99814755 0.040640038
-10.885645 -50.783443 -13.069806 0.01134881 -0.99818456 0.059149738
-9.6625843 -50.714947 -14.07088 0.035345796 -0.99811959 0.050079513
-7.3875079 -50.749588 -15.338254 0.030799117 -0.99843097 0.046763971
-2.4708805 -50.769337 -19.672867 -0.0089352727 -0.99708229 0.075808808
-22.96563 -50.778866 -1.5461171 0.078414276 -0.99688137 0.0088725965
-5.2155299 -50.713074 -17.247679 0.022280073 -0.99909908 0.036118586
-19.498383 -50.693092 -6.2166314 0.052977439 -0.9984436 0.01742644
-17.573668 -50.744194 -9.9203863 0.019225454 -0.99895126 0.041553564
-1.5104477 -51.15546 -21.671078 -0.031979911 -0.88354272 0.46725744
-21.629498 -50.773453 -4.5236993 0.052201379 -0.99858743 0.0099112531
-19.528233 -50.6693 -8.0348215 0.014128565 -0.9997468 0.017510638
-13.015526 -50.567226 -10.484221 0.022796856 -0.99840826 0.051586527
-12.989963 -50.708103 -13.612289 0.0072829234 -0.9987402 0.049647883
-15.192859 -50.757862 -11.826362 0.044554789 -0.99784666 0.048134938
-8.5695086 -50.854458 -17.550076 0.02210197 -0.99932724 0.029267909
-4.7898207 -50.89238 -21.160271 0.0069652759 -0.96438396 0.26441434
-1.7091428 -52.275558 -23.240612 -0.0076877866 -0.96203434 0.27282009
-7.0451045 -50.907101 -21.12537 0.055825166 -0.9619869 0.26732901
-5.4068561 -52.23534 -22.904898 0.014039919 -0.8800149 0.47473863
-15.174233 -50.854752 -15.126502 0.018840974 -0.99908793 0.038319301
-12.133079 -50.887779 -16.129465 0.01653018 -0.99913961 0.038035996
-17.083843 -50.89257 -13.749213 0.01254264 -0.99944949 0.03071459
-11.19163 -50.865417 -18.015141 0.026532073 -0.99935371 0.024252696
-2.9869325 -52.315239 -24.361473 0.019338952 -0.9984082 0.052982077
-9.6993704 -50.9286 -20.473972 0.077504404 -0.95608193 0.28266674
-15.779214 -50.983746 -18.449087 -0.018407352 -0.99935025 0.030990055
-7.0246897 -52.379639 -23.338135 0.12162326 -0.87170148 0.47470453
-19.639835 -50.973644 -15.265616 0.018857276 -0.99961257 0.020470731
-13.317204 -51.028896 -19.544062 0.0013775461 -0.98637563 0.16450299
-9.8208704 -51.756512 -21.265583 0.18170103 -0.7958377 0.57760465
-19.960613 -50.925636 -17.375443 -0.10658231 -0.98966801 -0.095902614
-17.740761 -50.941574 -16.207666 0.0044947318 -0.99991095 0.012568792
-12.543007 -52.325703 -21.389492 0.0076963352 -0.81585515 0.57820505
-25.655622 -52.245506 -6.2023816 0.46224135 -0.87784266 0.12539995
-14.330589 -51.237995 -21.485844 -0.17464834 -0.98417926 0.029816486
-10.277664 -52.499958 -22.356688 0.17014162 -0.8460418 0.50523758
-27.11858 -50.045685 -12.285399 -0.40633613 -0.89663655 -0.17587993
-24.882931 -50.800552 -12.912459 -0.24896556 -0.95467377 -0.16313826
-21.852638 -50.982548 -14.420674 -0.041495912 -0.99870032 -0.029593697
-29.09498 -50.220329 -6.1625161 -0.52773994 -0.845393 -0.082469158
-23.065744 -50.589867 -16.389399 -0.19777115 -0.96541876 -0.16986211
-18.707603 -50.894325 -19.688837 -0.14130288 -0.97764468 -0.15570599
-27.151363 -49.647724 -14.238464 -0.36963826 -0.90796703 -0.19739164
-16.896946 -50.943268 -20.635601 -0.13193232 -0.98171085 -0.13725047
-24.505022 -49.951313 -17.145336 -0.32924959 -0.91153252 -0.24638039
-14.854946 -50.556591 -23.736872 -0.1827302 -0.93972385 -0.28901324
5.546001 -51.853725 -23.937399 0.36594111 -0.66372091 -0.65235096
-17.076372 -50.271313 -23.320698 -0.20812836 -0.93505096 -0.2869882
-16.1828 -49.365993 -25.728233 -0.19093548 -0.89334261 -0.40679562
-24.612856 -49.006859 -19.637859 -0.36534005 -0.87326777 -0.32238179
6.1531944 -50.375828 -24.522007 0.27118647 -0.82839942 -0.4901146
-21.715145 -49.429874 -21.719444 -0.33919412 -0.87540841 -0.34439442
-23.569048 -50.937607 -11.755167 -0.012220157 -0.99921972 -0.037557669
-22.220465 -50.906094 -11.529401 0.078527391 -0.9968878 0.0069417544
4.6466656 -50.407227 -25.403833 0.17158903 -0.88105655 -0.44079095
6.9997015 -50.216621 20.745272 0.31464034 -0.85038686 0.42171511
12.19383 -49.957405 16.598803 0.16038206 -0.96687424 0.19857447
3.9849222 -49.688984 22.97835 0.22427666 -0.74567467 0.62743068
7.4725289 -50.235546 18.450218 0.20983653 -0.97615045 -0.055669054
12.247524 -50.239166 15.010043 0.057314202 -0.99670655 0.057367321
16.312918 -49.986805 11.589587 0.23796345 -0.95549619 0.17435701
1.7529495 -51.571701 21.68648 0.14842457 -0.75630248 0.63716304
5.3054442 -51.079243 21.042057 0.34667915 -0.73005307 0.58892792
3.2458794 -51.498329 21.366158 0.22819671 -0.75732285 0.61187279
14.725761 -50.225124 11.495252 0.065089114 -0.99568927 0.066077389
5.6773224 -51.494667 19.743719 0.42389444 -0.90451986 -0.04644683
10.043512 -50.200523 16.90329 0.072107807 -0.99289107 0.094698466
4.7101097 -50.27895 17.008936 0.049048692 -0.9937638 -0.10013859
11.324914 -50.292 11.631453 0.0078076907 -0.99996436 0.0032031292
9.0946341 -50.28828 13.360737 -0.003067398 -0.99993336 0.011131277
-0.58794868 -51.517578 22.250216 0.091588497 -0.79927641 0.59394342
7.2222037 -50.218845 16.583361 0.0076206066 -0.99994254 0.0075388444
13.097047 -50.279282 9.9526491 -0.01407749 -0.99987704 0.006901762
-1.3477404 -51.578136 21.268562 -0.0029105882 -0.99795741 0.063816905
-3.453567 -51.501095 22.553146 -0.0082890755 -0.74680853 0.66498733
0.43651217 -50.274982 18.513054 -0.0051973066 -0.99970442 -0.023752041
-6.3951764 -50.224831 23.564983 -0.068463735 -0.76247001 0.64339107
-2.5189476 -50.253872 18.536507 -0.0017204905 -0.99962372 -0.027375832
-0.42175213 -50.188622 14.711292 -0.0028846269 -0.99984968 -0.017098323
-8.8556004 -49.67218 23.708904 -0.1024607 -0.8031776 0.58686239
-6.6974845 -51.66782 21.85309 -0.069359012 -0.7566933 0.65008044
-11.837655 -50.427017 22.105289 -0.22447738 -0.74975377 0.62247825
-8.8351688 -51.62471 21.835079 -0.12846698 -0.71282452 0.68947613
-11.392545 -51.693089 20.96295 -0.22348152 -0.71073014 0.66702223
-14.364172 -49.841122 21.692781 -0.19980446 -0.89783132 0.39239916
-17.605938 -49.945972 19.541649 -0.19832653 -0.93269044 0.30125597
-13.558445 -50.583809 17.96674 -0.021704966 -0.99788117 -0.061336808
-15.224438 -50.361778 19.526117 -0.069885023 -0.99312758 0.093880713
-15.639527 -50.495346 15.750879 0.012269794 -0.99982417 -0.014177599
-20.322315 -49.899841 17.747643 -0.20044164 -0.94772065 0.24829149
-17.510687 -50.375553 14.751677 0.040486597 -0.99908549 -0.013750837
-17.944351 -50.471172 16.877823 -0.076439098 -0.99131048 0.10705434
-19.658955 -50.617828 14.487294 -0.076603912 -0.99423146 0.075070404
-20.067612 -50.470715 13.057687 -0.013152935 -0.99728864 0.072403997
-22.325815 -50.081501 15.087228 -0.16386123 -0.96926618 0.18350071
-20.932152 -50.715855 11.412555 0.005730913 -0.9987359 0.049938273
-21.29048 -50.65107 9.5910282 0.028796155 -0.999219 0.027060231
-22.969442 -50.490799 13.008233 -0.12446395 -0.98144776 0.14583918
-26.017799 -49.661888 12.786721 -0.34883049 -0.90339297 0.24939638
-19.588938 -50.641872 6.9260054 0.048257429 -0.9987697 0.011406071
-26.03546 -49.990772 11.471083 -0.36310974 -0.90711415 0.21282674
-24.533228 -50.544369 10.732118 -0.13133395 -0.97129542 0.19833454
-21.951855 -50.675549 6.556849 0.14585961 -0.9891324 -0.018493546
-27.791945 -49.694942 9.6189165 -0.41003966 -0.88098764 0.23606804
-24.829296 -51.080921 9.3220549 -0.1716352 -0.84147614 0.51230782
-22.673025 -50.964455 8.3962164 0.31003121 -0.93699938 0.1609747
-23.755869 -51.989994 7.8100591 0.37527421 -0.9073891 0.18924682
-23.830891 -51.434242 5.8346338 0.50678211 -0.84957391 -0.14627391
-24.949425 -52.155991 5.8144889 0.1541958 -0.98655391 -0.054174781
-24.312014 -51.269897 3.290046 0.48346961 -0.86885566 -0.10652224
-24.213655 -50.965427 -2.2572739 0.48546299 -0.87357217 0.034601517
-24.025341 -50.93539 1.6037334 0.29051542 -0.95669293 -0.018423025
-26.941534 -52.299973 1.6071668 -0.19016178 -0.98137134 0.027365699
-25.558062 -51.965683 0.92994553 0.43217686 -0.90170878 -0.012022384
-26.058355 -52.289688 4.3223758 0.097834714 -0.99500018 0.020075761
-28.020975 -51.778 -0.39082074 -0.70676237 -0.70599395 0.04538152
2.2802866 -52.205288 -24.485312 0.069209643 -0.97694182 -0.201977
3.0469875 -50.745861 -25.240309 0.21421421 -0.61134118 -0.761823
1.8756313 -50.494251 -25.950451 0.10024575 -0.87848699 -0.46713093
2.9694407 -50.267216 17.285576 -0.010946429 -0.9995349 -0.028465314
21.252026 -49.780285 2.9230678 0.64411503 -0.75575429 0.11811586
21.257338 -50.213787 -1.4759752 0.67354155 -0.73897392 0.016103936
20.363085 -51.429398 -3.4060833 0.58224493 -0.81268334 -0.023163488
-22.816124 -50.721409 4.6637406 0.23315293 -0.97062433 -0.059398226
20.026274 -51.495071 -5.7155952 0.59039092 -0.80142498 -0.095691018
19.298607 -51.654987 -8.2491379 0.43065605 -0.89806944 -0.089479499
18.841503 -51.698544 -10.682641 0.63403434 -0.73798293 -0.23104444
-24.546574 -52.328884 -8.7408381 0.56036443 -0.78281707 0.27053493
-28.876516 11.628792 24.506815 0.68861687 0.10647225 -0.71726608
-29.937214 9.9311132 23.053114 0.72908622 0.15745592 -0.66606379
-31.194492 9.3188562 21.42345 0.7436077 0.16124974 -0.6488806
-30.631304 10.872994 22.516008 0.74163008 0.14036161 -0.6559599
-31.92412 11.389575 20.941313 0.76972687 0.1240944 -0.62619567
-32.560261 10.131143 20.15118 0.79249334 0.12748417 -0.59640771
-32.838234 7.6538234 19.033634 0.73858756 0.20661066 -0.64171684
-33.920231 9.7257671 17.791277 0.83374041 0.12406429 -0.53803802
-35.117611 10.167174 16.274916 0.85148567 0.13141371 -0.50764406
-34.691212 8.1082373 16.406044 0.87163275 0.098345369 -0.48019218
-33.889809 7.0249863 17.582714 0.84330499 0.096216492 -0.52875239
-35.30592 8.1450205 14.960801 0.89498407 0.11144151 -0.43195421
-35.995098 6.5704212 13.638228 0.8980273 0.1394854 -0.41724193
-35.365089 5.4821658 14.560287 0.89175218 0.11788286 -0.43690026
-36.604412 7.7185216 12.640521 0.91934544 0.12020935 -0.37463814
-37.205112 8.8757925 11.558128 0.92583424 0.13748199 -0.35203645
-36.568626 11.009329 13.136243 0.9012863 0.12421133 -0.41503555
-37.053272 6.3477235 10.254433 0.94070584 0.092285559 -0.32642901
-37.71019 7.8113513 8.8850842 0.95080423 0.14318502 -0.27471694
-37.780872 10.543333 10.649686 0.93566507 0.12125543 -0.33140314
-36.78059 4.3733501 10.525994 0.9207657 0.19555518 -0.33756304
-37.787537 4.9874206 8.3856764 0.94269848 0.17231707 -0.28570336
-38.232132 11.805861 9.4818926 0.95215303 0.080686539 -0.29477835
-38.053242 9.6062641 8.6350737 0.95528448 0.16596793 -0.24471664
-38.034222 6.3449612 7.8329277 0.96095908 0.054364175 -0.27129725
-37.929462 3.3770778 5.9175053 0.95189118 0.23253097 -0.19958122
-38.414688 8.4746609 6.6218057 0.96572101 0.11339907 -0.23350279
-38.848705 12.425596 7.7017083 0.9669041 0.12471025 -0.22258458
-38.34267 5.4579906 5.6552353 0.97202325 0.13663302 -0.19105555
28.104177 33.053646 21.943224 0.79224879 -0.013252877 0.61005431
-38.910255 7.9379654 4.8608804 0.97579962 0.11273859 -0.18736373
-38.455502 4.4459844 3.8833849 0.973728 0.1705737 -0.15085851
-39.31908 9.4221697 2.8276653 0.98698086 0.095319949 -0.12954894
-39.371586 12.473063 4.6362443 0.98417544 0.12231562 -0.12820885
-39.007835 6.7905116 2.8128524 0.98542547 0.14408107 -0.090428382
-39.030422 6.1115532 0.047235906 0.98649991 0.16122983 -0.028685173
-39.550629 11.488467 1.29362 0.9903028 0.12379696 -0.063044757
-39.431305 8.2501154 0.29529506 0.99418569 0.10450041 -0.025971135
-39.558216 10.609262 -0.81728768 0.99548036 0.094622515 -0.0080810552
-39.275826 7.2298956 -2.8147471 0.98987627 0.13694181 0.037309036
-38.814495 5.0814452 -3.855026 0.98642075 0.13556825 0.092711039
-39.149971 10.077621 -5.8342524 0.9785924 0.14080296 0.15010449
-39.473816 10.010437 -3.6049321 0.99340534 0.09544614 0.063528895
-38.638649 6.5381231 -7.5943618 0.97553724 0.12190397 0.18293841
-39.07032 7.6564679 -5.4998221 0.98598903 0.10377515 0.13059983
-38.831242 9.1813068 -7.3856511 0.98386973 0.085996166 0.15686019
-39.210575 12.747972 -8.7277775 0.97042221 0.13096672 0.20280147
-38.616852 8.0464487 -8.0645618 0.9718594 0.10556939 0.21058102
-38.672966 11.416574 -10.053555 0.96147561 0.12906909 0.24270512
-37.901848 7.719377 -10.679165 0.9597525 0.11807912 0.25481868
-37.835815 12.833872 -13.091114 0.9429428 0.12890901 0.30698743
-37.754826 10.276922 -12.590795 0.9388938 0.12215038 0.32180366
-36.891201 6.5476222 -13.674921 0.92841357 0.10897717 0.3552072
-37.420773 7.330677 -12.418082 0.94385052 0.11045448 0.31136167
-37.361244 12.000159 -14.127106 0.93041319 0.11803955 0.34698406
-35.749401 9.0558119 -17.001772 0.89743835 0.10727363 0.4278982
-35.852352 10.811156 -17.266054 0.88951749 0.12483486 0.43951681
-35.127522 11.186205 -18.748121 0.86462837 0.11292744 0.48955604
25.498558 33.187241 25.136135 0.74263799 -0.052122869 0.66766155
-39.047173 34.5616 15.317371 0.56999856 0.76493591 -0.29995796
1.44241 -50.199547 15.496665 -0.0063165659 -0.99973977 -0.021917686
-33.637295 32.418446 25.515024 -0.72111946 -0.11768508 0.68274224
21.219999 13.248997 -27.614891 -0.6847744 0.08462745 0.72382462
20.048412 12.071246 -28.163906 -0.65140343 0.10086445 0.75199723
19.135345 13.470986 -29.295473 -0.63158184 0.11584692 0.76660544
16.580744 13.643109 -31.160894 -0.54962254 0.12055598 0.82666886
13.277342 13.045238 -33.280834 -0.47130817 0.12179581 0.87351841
-2.0451217 12.939464 -37.25518 -0.056766395 0.14867955 0.98725474
-4.4846158 11.784575 -37.170971 0.0015354749 0.12434723 0.99223763
32.014385 33.859257 -19.599478 0.79220456 0.45071289 -0.41142419
-11.84565 11.480932 -36.230007 0.21666355 0.12186517 0.96861029
31.439423 34.243721 -20.788452 0.79834694 0.46981701 -0.37671492
-14.381881 12.73517 -35.746826 0.27288848 0.11706447 0.95489675
-15.880622 11.1395 -35.120518 0.33505338 0.11568988 0.9350695
9.5141077 -50.029881 -23.615492 0.21702118 -0.91738701 -0.33362082
32.613174 34.388313 -17.967974 0.83332801 0.43146262 -0.34554949
30.59313 35.004807 -20.474169 0.60500973 0.72460514 -0.33001602
-43.705353 35.773537 0.75300759 0.90641165 0.42215905 -0.014130907
1.1162636 33.401535 37.936466 0.15339655 -0.02344285 0.98788655
-16.390949 33.56192 36.726288 -0.28435615 0.0078189913 0.95868677
13.17594 -50.014629 -20.761896 0.26507246 -0.93463314 -0.23705986
-28.889889 -48.827007 -13.716308 -0.46191484 -0.87055141 -0.16963182
33.696918 27.233662 -14.439955 0.93695134 -0.1234334 -0.32693484
-21.218105 -50.209438 -20.227423 -0.26562759 -0.92788082 -0.26168528
-19.327665 -49.518654 -23.542324 -0.24857819 -0.91856527 -0.30732211
9.4190435 -49.452824 -25.06019 0.26243958 -0.86497766 -0.42771387
8.9244318 -49.844597 20.029907 0.19072294 -0.95624286 0.22186545
11.442838 -49.454712 19.658672 0.23139381 -0.92169398 0.31134734
14.79202 -49.884624 14.85311 0.23478785 -0.95170069 0.1978391
8.4825268 -49.044155 22.322565 0.25746971 -0.82584012 0.50169462
-12.785308 -49.543262 23.050085 -0.17839079 -0.85509044 0.48682332
-18.079758 -48.951332 21.751532 -0.24722217 -0.86417872 0.43826509
-22.533304 -49.133224 18.185204 -0.35212246 -0.8567766 0.37675399
-22.782038 -49.55611 16.690077 -0.31569466 -0.89172643 0.324285
-24.527527 -49.671883 14.615776 -0.31155804 -0.91071081 0.27117774
19.903709 -50.309063 -9.7388077 0.63819772 -0.73866093 -0.21698773
18.317636 -50.316498 -12.446326 0.43400255 -0.86844307 -0.23968393
12.484987 -49.318336 -23.185671 0.31823355 -0.86126286 -0.39617378
11.733608 -49.919403 -22.265938 0.24533586 -0.9254297 -0.28877363
-24.626881 14.322872 28.17457 0.60454911 0.16975513 -0.77826953
-27.522367 12.368718 25.74287 0.60857743 0.12249408 -0.78398257
-31.371466 12.698285 22.055969 0.76976901 0.11570226 -0.62774897
-32.969772 12.421609 19.886164 0.75602144 0.091305219 -0.64814728
32.029823 32.918262 15.535466 0.88466585 -0.046058469 0.46394491
29.581568 33.154881 18.340239 -0.47732526 0.80354923 -0.35562518
34.236301 31.237289 -6.153501 -0.99272758 0.038914803 0.1139186
33.723923 30.809629 -8.936841 -0.98024523 0.10047716 0.1703632
34.050156 30.708424 3.3985865 -0.98114508 0.12876025 -0.14413559
28.241529 32.904015 19.572016 -0.77547187 0.31658089 -0.5462783
34.2272 29.601963 -0.10741457 -0.9918775 0.1016253 -0.076493867
34.266785 29.262194 -2.4605968 -0.99473161 0.10131895 0.015603568
33.381962 29.502666 6.0792823 -0.97230548 0.098949842 -0.21173333
34.091625 27.749023 -0.2934711 -0.99422914 0.10268643 -0.031047922
32.62117 28.456913 9.1036816 -0.95429194 0.083474509 -0.2869823
33.580025 25.795702 3.446183 -0.98678142 0.092171125 -0.13329314
33.854282 25.517744 -1.2497587 -0.99474382 0.10211268 -0.0076044365
33.882507 27.15798 1.9757173 -0.99253058 0.081516884 -0.090763479
33.503109 27.635685 4.823669 -0.97843194 0.083435275 -0.18896985
33.76746 25.752529 -6.2396345 -0.98679227 0.12310424 0.10529166
33.819599 24.617619 0.96809947 -0.98936558 0.12428026 -0.07556548
33.506294 22.764437 -0.16758975 -0.99084902 0.13187107 -0.028780119
32.60157 24.343693 7.2349033 -0.96309471 0.11397596 -0.24383999
33.900684 25.811039 -3.0264087 -0.99464911 0.10254084 0.012589164
33.249702 23.232368 3.4770854 -0.97831541 0.15266399 -0.13997358
33.089626 22.495857 -7.1967382 -0.98265117 0.13652927 0.12552387
33.16161 19.802858 -0.63583714 -0.98901695 0.1453609 -0.026751842
32.994915 19.564318 -3.5012021 -0.98935682 0.14239289 0.029954839
32.432987 21.855423 6.6711636 -0.95978141 0.13128343 -0.24816193
33.147011 21.090088 -5.2389011 -0.98835117 0.12659311 0.084475949
32.804279 18.890747 2.4788518 -0.98660558 0.11995025 -0.11055029
32.37431 17.521305 4.2121215 -0.97473949 0.14924844 -0.16615646
32.702633 16.911573 -1.8297834 -0.9910872 0.13286245 -0.0096826926
32.881634 18.097425 -4.8314776 -0.9847396 0.15539828 0.078354128
32.426434 16.218565 2.3048222 -0.98391509 0.15801781 -0.083315514
31.650646 17.422392 7.8880486 -0.96514314 0.12996767 -0.22717199
31.340759 15.73417 8.0063181 -0.95449227 0.15617186 -0.25407645
32.462494 15.388641 -3.2595952 -0.98298633 0.17509091 0.055507738
32.531895 15.369509 0.0060161739 -0.98919159 0.13644576 -0.053689346
31.859648 15.483311 4.8203559 -0.96579689 0.19750986 -0.16800684
-9.5815325 15.423099 -37.167622 0.11475079 0.20699164 0.9715898
-9.4641428 16.704079 -38.044582 0.15159853 0.30056295 0.94163674
-30.59551 31.97595 -32.198433 -0.79480314 -0.031331897 -0.60605794
-42.854729 32.080555 -12.595538 -0.95845383 0.0059796451 -0.28518495
-42.651455 29.160078 -11.89137 -0.9625808 -0.10439898 -0.25007808
-43.412525 30.091442 -8.3155909 -0.97494638 -0.1442481 -0.16932799
-44.333828 31.930998 -0.32611793 -0.99890429 -0.035386875 0.030626958
-43.867508 30.574532 -5.7003236 -0.98704451 -0.1109589 -0.11589336
-43.968315 29.942667 -3.0217419 -0.99158758 -0.12516253 -0.032989278
-43.830795 30.421127 2.6438522 -0.98652655 -0.13705006 0.089346029
-43.658398 28.376514 2.4372137 -0.99068391 -0.088714741 0.10332057
-43.845322 27.890175 -3.0378578 -0.99418771 -0.10605212 -0.018539723
-43.096542 26.772432 -8.7011824 -0.98021066 -0.10224569 -0.16950801
-43.632442 27.806164 -5.8284984 -0.9913094 -0.084427096 -0.10088425
-43.886169 29.181541 -0.031211764 -0.99288559 -0.11210296 0.040138632
-42.166435 26.152611 -12.611473 -0.95887721 -0.10958543 -0.26181188
-41.00193 24.126261 -15.416467 -0.9326418 -0.12127344 -0.33981177
-43.482937 24.924778 -0.83323467 -0.99197555 -0.12435068 0.02283508
-43.232845 24.040277 -4.8543501 -0.98955601 -0.13158152 -0.058866065
-42.97958 24.255785 4.4451475 -0.97798127 -0.130657 0.16273078
-42.655273 22.479729 -8.4025822 -0.97849 -0.12488252 -0.1641999
-42.8787 22.579227 3.339437 -0.98559093 -0.13017379 0.10800549
-42.19035 21.719507 6.5476842 -0.97148639 -0.13599332 0.19421659
-43.043571 22.008326 0.68404895 -0.99017262 -0.12899616 0.054019745
-41.173744 22.129641 -14.053879 -0.94595647 -0.12886027 -0.29759273
-43.059334 22.163694 -4.521934 -0.98958617 -0.12142326 -0.077302851
-43.239414 23.312267 -1.9371884 -0.99270982 -0.12023909 -0.0083477357
-41.741356 21.507374 -11.721545 -0.9603501 -0.12147819 -0.25093964
-42.377754 19.635721 -7.4954648 -0.98094881 -0.12686603 -0.14712061
-42.90403 20.376072 -2.1985612 -0.99212748 -0.12436002 -0.014751075
-42.916393 20.893538 -0.17553408 -0.99152654 -0.12413206 0.038293503
-42.028374 20.215401 -10.065399 -0.96924078 -0.12818769 -0.21009558
-42.583313 18.341265 0.35919884 -0.99169523 -0.11855005 0.049864311
-41.728436 17.901363 -9.8565998 -0.9699347 -0.12827735 -0.20681322
-41.782852 18.677025 6.6404152 -0.96965253 -0.10927693 0.21870671
-42.514763 18.829357 -5.8095131 -0.98772728 -0.12748678 -0.090233967
-42.165241 17.435471 4.4094162 -0.98275793 -0.12507756 0.13617054
-41.174408 18.359827 -12.483759 -0.9594366 -0.12254145 -0.25389969
-42.54911 17.572521 -2.8122079 -0.99180347 -0.12435921 -0.029335571
-42.321533 15.924051 -0.53893751 -0.99284816 -0.1179172 0.018655626
-42.229027 16.698193 2.5406935 -0.98445255 -0.13896169 0.10743746
-41.221375 15.91156 -10.912173 -0.96599901 -0.11780835 -0.23014571
-42.169456 14.705198 -3.1727121 -0.99235022 -0.11572066 -0.043009251
-32.232933 24.332653 -29.274517 -0.68923283 -0.135168 -0.71182001
-41.786358 13.702832 3.7158644 -0.98632258 -0.084275208 0.14165257
-41.058189 12.798533 -10.154268 -0.97111183 -0.12435707 -0.20365962
-41.979969 12.818876 -0.90219992 -0.9933539 -0.11383732 0.017000685
-41.709408 10.648748 -1.3753321 -0.99201751 -0.12610045 0.0001350221
-41.609695 11.560951 3.3482952 -0.98734915 -0.10862454 0.11550889
-40.314713 9.9710808 -11.591752 -0.96349078 -0.1258821 -0.2363033
-41.686909 11.017322 1.6487167 -0.99143231 -0.11926942 0.053261369
-41.524242 9.8490753 -3.8531613 -0.99096793 -0.12553164 -0.04716238
-41.207874 8.7960043 3.6763465 -0.98193014 -0.14215536 0.12492029
-41.266922 8.3991432 -5.3403249 -0.99020022 -0.11377107 -0.080991775
-41.217846 7.1704912 -3.569572 -0.99257547 -0.11396668 -0.042492952
-40.507786 5.5626392 -8.5290413 -0.97845685 -0.11605829 -0.17074151
-40.103405 5.1968169 -10.205884 -0.96490788 -0.10564288 -0.24040057
-41.418434 8.0921612 -0.11729058 -0.99256927 -0.11803798 0.029552311
-40.888241 6.4125919 3.6399212 -0.98550123 -0.10716532 0.13154097
-41.092388 5.0722485 0.17441526 -0.9945333 -0.10297924 0.017283488
-40.883842 6.0624523 -6.3634896 -0.98681331 -0.11708665 -0.11175974
-39.665241 2.7979581 -11.018443 -0.96661478 -0.11031479 -0.23127146
-40.765125 2.2866375 -1.3640472 -0.99328458 -0.11235425 -0.02760887
-40.827869 4.0004311 -4.4452362 -0.99112481 -0.11685663 -0.063373424
-40.855522 2.9843678 0.10061849 -0.99249017 -0.11454075 0.04293821
-40.005306 1.3151084 5.4562879 -0.97578359 -0.12044572 0.18259014
-40.294018 0.9219088 -5.9594259 -0.98820186 -0.10980804 -0.10676752
-39.576077 -1.2504401 -9.271018 -0.9759835 -0.11117459 -0.18734045
-40.5681 0.56279516 -2.1483476 -0.99428177 -0.098266274 -0.041800942
-39.209629 -1.9190863 7.1550283 -0.96336204 -0.10547551 0.24659371
-40.266632 -1.0231615 -4.5746446 -0.98877662 -0.1094901 -0.10164978
-40.188721 -2.6963015 -2.3617651 -0.99339122 -0.10883021 -0.036465973
-40.389053 -1.0222782 0.35771361 -0.99305332 -0.11494775 0.025143808
-39.761856 -2.9912691 -6.8477173 -0.98735696 -0.10353372 -0.12002876
-39.979023 -4.1918979 1.3119143 -0.99009496 -0.11634943 0.078580275
-39.471863 -4.1929469 4.5949006 -0.97511238 -0.12654012 0.18205322
-40.053776 -4.4361701 -0.69208646 -0.9928205 -0.11912061 0.010849942
-38.296528 -7.1886129 -11.672057 -0.95465016 -0.11790239 -0.27339002
-39.368698 -6.3023038 -7.1879654 -0.98358488 -0.12395034 -0.13113746
-39.81797 -4.7334599 -5.1843605 -0.9891808 -0.10323232 -0.104232
-39.900406 -4.8614826 -3.1891942 -0.9916119 -0.11625697 -0.05648132
-39.573425 -8.1807184 -1.8625233 -0.99277771 -0.11940708 -0.011593071
-39.048199 -6.4571066 -8.7547483 -0.97015917 -0.11903489 -0.21123891
-38.798248 -8.6126432 -8.60816 -0.9768877 -0.12104529 -0.17617777
-39.490452 -8.4445343 1.0406425 -0.99143291 -0.11396248 0.06382218
-39.573147 -7.5283856 -4.0892992 -0.98942286 -0.12061898 -0.080581881
-39.220081 -8.8727665 -5.5382538 -0.98566347 -0.1290523 -0.10868727
-38.998714 -11.089391 2.6397326 -0.98598009 -0.12244253 0.11336233
-38.719563 -11.216677 -7.3500552 -0.9823249 -0.11316875 -0.14909948
-39.28125 -10.789042 -2.297415 -0.99213856 -0.11480967 -0.049797606
-38.590382 -11.339501 4.9648561 -0.97603089 -0.10483029 0.19072057
-39.020271 -12.389011 0.36841676 -0.99173063 -0.11649594 0.053843141
-38.290989 -10.876582 -9.8239374 -0.96689594 -0.12333752 -0.22338308
-38.622761 -13.213258 -6.4347148 -0.98810089 -0.10484073 -0.11253962
-39.012028 -12.92465 -1.3742472 -0.99121445 -0.132181 0.0047092102
-38.714317 -13.143841 3.1568937 -0.98411262 -0.11591985 0.13447973
-36.604187 -14.306266 -13.980696 -0.92584682 -0.11485299 -0.36002296
-38.756672 -14.502538 -3.4718292 -0.99268752 -0.11009174 -0.049511384
-38.716339 -14.90019 1.2131611 -0.99161452 -0.11290017 0.062881947
-38.283741 -14.887305 4.2538743 -0.97836447 -0.12214706 0.16698231
-38.451687 -17.405895 -3.4519966 -0.99208307 -0.10911338 -0.062172852
-38.399761 -15.766423 -6.1104999 -0.98593205 -0.10959458 -0.1262027
-38.62825 -16.358147 -1.2370491 -0.99477363 -0.10197695 0.0051212213
-38.40485 -18.187559 -0.92664182 -0.99405557 -0.10780147 0.015243855
-38.324074 -19.224678 -2.1814406 -0.99307412 -0.11727811 -0.0070464835
-37.770115 -20.47896 -6.6534686 -0.98265386 -0.11224357 -0.14762352
-37.7271 -17.651352 -8.6833801 -0.97482252 -0.11416248 -0.19154115
-38.093197 -19.911547 -4.2238841 -0.98894322 -0.12003043 -0.087085888
-38.037987 -20.857161 1.6621729 -0.98960918 -0.11626808 0.084589921
-38.302624 -18.430792 1.5899111 -0.99120986 -0.10471367 0.080858715
-37.530201 -21.475897 4.5317035 -0.97641116 -0.10791838 0.1870155
-37.797634 -21.983433 -4.6246953 -0.98948932 -0.11390618 -0.089085825
-36.834427 -21.933405 7.2505679 -0.9532904 -0.10781001 0.28216046
-37.064995 -23.854864 -8.5143242 -0.97367835 -0.1128518 -0.19802739
-37.885757 -22.07501 0.4920291 -0.99431539 -0.10518794 0.016503409
-37.378147 -24.274981 -6.4378667 -0.98557431 -0.11259902 -0.12635154
-37.79356 -23.796871 0.63969666 -0.99263686 -0.11495361 0.038181223
-37.634598 -24.567158 -3.1450198 -0.99191147 -0.11276034 -0.058282062
-37.475361 -25.3675 1.6037474 -0.98792964 -0.11378536 0.1051087
-36.517712 -25.181906 7.0985203 -0.95970368 -0.10324727 0.26135957
-37.513275 -26.129042 -1.2105445 -0.9932 -0.1160131 0.0097282194
-36.812927 -26.644793 5.5899682 -0.97644544 -0.099796645 0.19129775
-37.33794 -27.083393 -3.4318757 -0.99268454 -0.1067939 -0.056325074
-36.707264 -27.218607 -8.2611904 -0.97490329 -0.12096202 -0.18690051
-37.122368 -26.901545 -6.0421891 -0.98546773 -0.11127263 -0.12834261
-36.971031 -29.565548 1.8225691 -0.98855132 -0.11665569 0.095696084
-36.755753 -28.7099 4.4776125 -0.97926229 -0.11457824 0.16708422
-36.279255 -28.779963 -9.4070797 -0.96908861 -0.11456274 -0.21850114
-37.141197 -29.705812 -2.0284038 -0.99294358 -0.11031134 -0.043525986
-36.054279 -31.869642 -8.7240362 -0.97152555 -0.11408431 -0.20766027
-36.52779 -30.712469 4.0165863 -0.98153418 -0.11214391 0.15496562
-35.59729 -31.787079 -10.689243 -0.95959812 -0.11536562 -0.25663632
-36.877373 -30.138916 -4.9517322 -0.98819757 -0.11757079 -0.098196991
-36.736706 -32.814789 0.085745499 -0.99241132 -0.11021863 0.054512508
-36.356964 -33.14743 -6.3228755 -0.98519564 -0.11061665 -0.13097124
-36.783798 -32.833176 -2.5103171 -0.99326777 -0.10975786 -0.037044812
-35.510147 -35.396172 -9.4650183 -0.96864825 -0.1094899 -0.2230081
-36.382343 -35.292637 1.7337865 -0.98960298 -0.11095066 0.091520108
-36.356312 -35.636608 -3.7372344 -0.99089301 -0.10741337 -0.081200086
-36.46048 -35.754494 -1.7532502 -0.99366909 -0.11182615 0.010799163
-36.08482 -37.469833 2.0720046 -0.98899394 -0.11577298 0.092128418
-36.041031 -39.37278 -1.8949263 -0.99260956 -0.11960796 -0.020498827
-36.091576 -38.467304 0.3581084 -0.99178779 -0.11125483 0.063082211
-35.74942 -38.796326 -6.353404 -0.9853912 -0.1087245 -0.13108522
-36.012436 -38.881931 -3.9506109 -0.99059337 -0.11157734 -0.079216912
-35.85001 -40.622513 0.26640132 -0.99099237 -0.1262721 0.04460388
-35.602646 -41.311451 -5.1686535 -0.98053354 -0.16030519 -0.11338472
-35.324738 -40.572163 -7.7009954 -0.96897286 -0.14013067 -0.20360525
-35.518337 -41.941093 2.4472764 -0.97550339 -0.19167098 0.10796018
-35.059433 -42.327908 5.1214676 -0.96473384 -0.18504463 0.1872084
-34.995258 -43.916893 -5.4376736 -0.94341326 -0.31048921 -0.11648154
-35.650082 -42.262272 -2.8333368 -0.97999591 -0.19085985 -0.056395967
-35.577965 -42.827152 -0.57326132 -0.9729206 -0.22845437 0.035130102
-35.105076 -44.237774 -2.5826952 -0.92411834 -0.38063923 -0.033450846
-33.872444 -45.959354 -6.8476129 -0.88895035 -0.43487355 -0.1437088
-34.285938 -45.671028 -4.5655198 -0.88122702 -0.46758696 -0.069291465
-33.080471 -47.022167 -5.9640741 -0.77536625 -0.62855136 -0.061076179
-11.246691 25.521637 35.307461 0.176145 0.099245697 -0.97934836
-12.253242 -16.712702 -35.230801 -0.24399848 -0.1080007 -0.96374303
-9.3096638 -28.545811 -34.335674 -0.14466354 -0.11149733 -0.98317891
20.43054 10.845912 -30.704695 0.62748957 -0.13179223 -0.76739013
20.033882 6.7914419 -30.368589 0.64765614 -0.11537083 -0.75314754
24.259161 1.7546092 -25.067539 0.75050813 -0.12398355 -0.64912683
16.750059 -24.227709 -28.279591 0.60938627 -0.11306766 -0.78477013
-14.206657 29.380938 -38.679756 0.29880553 0.071805961 0.95160866
-5.1672387 26.752579 -39.80389 0.053514071 0.1095017 0.99254507
-5.9619889 23.541273 -39.358536 0.092482366 0.1401632 0.98579985
-18.083803 22.113581 -36.454735 0.36973122 0.1346547 0.9193297
-16.264366 21.131124 -36.854164 0.30787143 0.14509334 0.94029945
-8.1426649 21.128223 -38.78149 0.11108122 0.14376251 0.9833582
-4.487052 18.922787 -38.720982 0.017645553 0.1027026 0.99455553
0.22946063 21.466894 -38.909359 -0.12913476 0.16201651 0.97830206
-11.198001 19.309183 -37.99247 0.19516464 0.14496176 0.96999836
-0.53360403 19.743954 -38.746204 -0.10209154 0.11933633 0.98759109
-7.3043923 16.464518 -38.312607 0.18564469 0.33326364 0.92437619
-1.2140707 16.114082 -38.523022 -0.094568193 0.24230681 0.96557975
2.9941764 21.426287 36.521549 0.17753874 -0.1149683 0.97737521
-4.3707151 21.558598 37.234314 -0.019061353 -0.12743199 0.99166411
6.5141726 18.404018 35.438622 0.30333692 -0.10975964 0.94654077
1.3464128 19.52142 36.685101 0.14135282 -0.09212701 0.98566324
3.0744102 18.465942 36.093601 0.19859768 -0.11506952 0.97330266
3.59639 15.522168 35.723965 0.1974933 -0.11558732 0.97346592
-3.3073394 14.732221 36.370895 0.009015291 -0.13159709 0.99126226
4.6576376 14.032993 35.328373 0.24061939 -0.10747022 0.96465147
1.2958126 12.45001 35.826546 0.1228726 -0.12535898 0.98447317
3.1661632 13.078829 35.51466 0.18567714 -0.10452139 0.977036
8.0218821 11.204793 33.977654 0.34063858 -0.10100792 0.93475276
2.591388 9.4955111 35.305397 0.15189725 -0.096492343 0.98367494
5.7677631 6.6321259 34.211578 0.25360042 -0.10361008 0.96174413
1.5511782 5.0954905 34.964733 0.14499795 -0.089211725 0.98540181
4.672317 0.72169518 33.942963 0.25436708 -0.10742316 0.96112311
-3.3193841 -1.1000122 34.664791 0.02402601 -0.12962362 0.99127215
8.7579842 -11.890956 31.193493 0.35936636 -0.10231329 0.92757094
1.4929039 -14.764527 32.868431 0.16725112 -0.099843167 0.98084581
6.2280879 -15.779616 31.662817 0.29559332 -0.099703334 0.95009673
-0.09789633 -18.002275 32.741753 0.10766586 -0.10320218 0.98881614
-1.3698251 -22.456728 32.418743 0.066066198 -0.10555905 0.99221599
3.1805079 -38.422634 29.981489 0.21324331 -0.11000277 0.97078663
33.555847 32.729065 -17.250177 0.93578345 0.1186974 -0.33199427
-22.303463 29.492966 -35.490139 0.47076353 0.13152102 0.8724013
-21.070875 31.039764 -36.415051 0.421738 0.0488679 0.90539992
-29.60887 29.306772 -30.248276 0.635768 0.11764178 0.76286262
-27.495283 29.943398 -32.10817 0.61713237 0.11130039 0.77894789
-26.012135 29.037647 -33.013832 0.57759422 0.11720444 0.80786639
-24.079855 30.89653 -34.651993 0.52501172 0.11421756 0.84339613
-16.013514 28.657503 -38.025288 0.31571001 0.13479087 0.93923301
-28.595013 28.955685 -30.992247 0.62946975 0.11049814 0.76912808
-18.29192 29.686522 -37.421013 0.37698072 0.075780705 0.92311579
-19.940477 28.676586 -36.413906 0.42702177 0.12984781 0.89486974
-25.761665 27.435719 -32.997105 0.56167883 0.11029451 0.81997073
-19.9224 26.766834 -36.313869 0.42754048 0.12031685 0.89595366
-24.095255 27.556362 -34.127705 0.54135638 0.11454598 0.83295405
-18.332863 26.918783 -36.987312 0.34947237 0.13124304 0.92770916
-13.98961 26.692457 -38.625286 0.2704905 0.10522389 0.95695502
-15.703979 26.732559 -37.951954 0.35393086 0.10532013 0.92932266
-23.048204 24.984421 -34.447216 0.49244502 0.1097983 0.86338997
-17.051413 24.500029 -37.149406 0.35313085 0.12853074 0.92670298
-25.250269 24.262638 -32.939198 0.56646699 0.10418961 0.8174715
-23.951605 23.436758 -33.749889 0.52785671 0.132642 0.83891207
-21.136934 24.835981 -35.347 0.42993212 0.13864662 0.89215213
-19.970863 22.160213 -35.493694 0.42761397 0.12996192 0.89457041
-19.113123 24.274549 -36.283096 0.40131566 0.13495721 0.90594274
-25.219715 22.264366 -32.659462 0.56901306 0.1413749 0.8100847
-22.09716 22.283857 -34.620926 0.43740347 0.13726468 0.88872755
-24.434385 20.469427 -32.856121 0.56115729 0.12149989 0.81874311
-21.793873 20.627642 -34.405193 0.43784398 0.15196441 0.88611478
-9.6598997 22.359854 -38.75732 0.15145449 0.15276606 0.97658795
-26.64168 20.204006 -31.273245 0.61907977 0.13265669 0.77404284
-23.104273 20.490868 -33.689667 0.49620327 0.17417562 0.85055572
-18.73447 20.148027 -35.85294 0.39742634 0.20790155 0.89377248
-20.167191 20.134605 -35.183342 0.43217623 0.15884151 0.88768965
-12.308164 21.914139 -38.216423 0.21218519 0.16549504 0.96311408
-25.584408 18.615324 -31.766577 0.59042078 0.16873638 0.78925997
-7.9508672 18.856976 -38.489529 0.12403771 0.1155687 0.98552454
-21.355843 19.265978 -34.409233 0.41913614 0.1754356 0.8908127
-17.415043 18.248556 -35.933842 0.39565355 0.12415372 0.90996933
-19.28644 18.668369 -35.107822 0.42468068 0.15483813 0.89200425
-22.929945 17.708021 -32.964058 0.48917991 0.19349898 0.8504476
-21.837072 17.641645 -33.908085 0.46174303 0.17561017 0.86945641
-24.384245 18.227589 -32.657055 0.48446578 0.21232505 0.84865242
-19.077805 16.828972 -35.315228 0.43799964 0.18548171 0.87963223
-27.077915 16.521358 -30.433886 0.56081206 0.41884637 0.71418309
-25.205338 16.418976 -31.373337 0.54468799 0.30559054 0.78097975
-20.396767 16.371237 -34.214531 0.42815641 0.25052646 0.86828488
14.869876 29.512878 33.108986 0.47780114 -0.096357211 0.87316746
21.14115 30.019976 29.080521 0.63026929 -0.1056094 0.76916009
22.088156 28.297554 28.050175 0.65068567 -0.085821897 0.75448185
13.669388 28.474718 33.768784 0.44195729 -0.06172305 0.89491004
17.644384 27.58288 31.388029 0.52392185 -0.080917731 0.84791404
12.076132 27.285582 34.364323 0.36835751 -0.094462983 0.92487276
21.058407 25.069529 28.63266 0.63732821 -0.10706241 0.76311892
9.3507442 26.146875 35.273132 0.33736423 -0.087038398 0.93734187
15.652905 26.775745 32.560833 0.5106318 -0.090233214 0.85505146
2.6847489 23.264711 36.887775 0.16907488 -0.11273554 0.9791345
7.5903225 25.514389 35.845257 0.31597665 -0.085905716 0.94486982
13.741301 25.416664 33.408516 0.42811173 -0.11472647 0.89641404
19.046391 25.609879 30.185898 0.55919152 -0.10845037 0.82191449
19.245052 23.406988 29.772385 0.58595735 -0.11559345 0.802055
15.05873 23.7222 32.457935 0.4706904 -0.13358954 0.87212634
16.882414 23.385399 31.347311 0.53481454 -0.10635054 0.83824992
20.639956 21.805714 28.384701 0.62711322 -0.12145192 0.76940131
17.079704 20.741785 30.889921 0.52349275 -0.12132412 0.84334803
18.380266 21.561701 30.132509 0.58554864 -0.12274934 0.80128986
15.703982 19.52282 31.510094 0.47623751 -0.10643648 0.87285119
5.7219152 20.654112 35.838909 0.23281333 -0.095103264 0.96786016
12.073446 22.322498 33.754158 0.41237196 -0.12516586 0.90237629
13.440578 21.372784 32.916298 0.45299652 -0.12170356 0.88316613
5.0122957 17.873602 35.739208 0.20231391 -0.11815585 0.97216684
10.419293 20.283527 34.220604 0.37234336 -0.11558853 0.92086899
12.938431 19.436373 32.956528 0.42864326 -0.10891688 0.89688468
8.1223621 19.004728 34.852108 0.34285879 -0.11271873 0.93259978
17.21278 17.902809 30.419416 0.55151117 -0.11674973 0.82595694
21.119543 15.483583 27.140364 0.64474934 -0.11712388 0.75536776
14.720291 17.245743 31.754583 0.47894275 -0.10138562 0.87197185
16.732561 14.682816 30.256044 0.54629254 -0.10735327 0.83068627
12.195969 15.852547 32.884716 0.41417381 -0.094249532 0.90530491
14.262465 14.619462 31.78548 0.48022398 -0.096654072 0.87180442
20.782747 13.474789 27.040819 0.62935865 -0.1081138 0.76955771
10.800344 14.592476 33.324959 0.37040609 -0.1025309 0.92319375
10.101022 13.171161 33.469563 0.35937512 -0.11769193 0.92574191
7.7080116 13.421527 34.40596 0.32211179 -0.11249743 0.9399938
12.332845 13.368388 32.597095 0.42211041 -0.12205784 0.89828986
20.779968 10.604259 26.688438 0.64404041 -0.091473177 0.75950283
5.7406702 10.846443 34.722641 0.25183582 -0.10176436 0.96240461
17.461317 12.168359 29.43388 0.55952132 -0.1034524 0.82233423
11.585283 11.609895 32.659855 0.40288466 -0.11298486 0.90825015
19.118307 12.379292 28.269093 0.60493815 -0.095728971 0.79049718
15.302489 12.552738 30.872261 0.49406177 -0.118065 0.86137319
16.351475 9.7931185 29.874516 0.53606147 -0.099595591 0.8382833
23.510874 8.9066391 23.736088 0.75224441 -0.099892579 0.65126789
9.9334755 9.6329098 33.163754 0.36754638 -0.09280891 0.92536271
6.7393212 8.6753864 34.214146 0.29369107 -0.10208475 0.95043367
20.179136 8.1580181 26.933296 0.644665 -0.11672086 0.75550205
10.796911 8.6061659 32.661617 0.40949839 -0.095781744 0.90726888
8.542635 8.0355892 33.487591 0.35053718 -0.10331453 0.9308328
3.4647021 5.1389542 34.563416 0.20732513 -0.094943337 0.97365403
10.420925 6.030889 32.572746 0.37954333 -0.097656474 0.9200055
13.052054 6.8560576 31.447815 0.43772087 -0.092382163 0.89435232
17.719683 5.2148242 28.34001 0.57479513 -0.10417029 0.81163985
17.722383 7.1324 28.667936 0.56971288 -0.11133121 0.81426811
19.481768 6.4182014 27.208845 0.62703812 -0.12234873 0.76932043
12.232128 5.160296 31.636002 0.42554018 -0.11213387 0.89796525
18.298532 2.8498192 27.673922 0.60000426 -0.094777472 0.79436278
20.405544 4.0619068 26.095869 0.64628291 -0.09827067 0.75674397
14.359011 4.4771481 30.468185 0.5125159 -0.10682156 0.85200733
13.43501 2.7346525 30.765194 0.45771584 -0.1055111 0.88281572
16.279564 2.6360133 29.04221 0.54580182 -0.10082837 0.83182567
10.702674 0.57394987 31.82543 0.38832748 -0.10481261 0.91554141
18.933886 0.88896692 26.906759 0.62922883 -0.11727791 0.76832086
7.6966391 1.4232116 33.073795 0.31447101 -0.10282414 0.94368172
13.501101 0.45451915 30.43112 0.45982149 -0.12016696 0.87984318
22.52862 0.16192874 23.628895 0.71524501 -0.10448754 0.69101876
17.800299 0.066855229 27.675421 0.59712017 -0.10939579 0.79465717
20.69574 -0.42876044 25.103376 0.65012324 -0.099559009 0.75327802
7.0158491 -0.34278801 33.110607 0.3035042 -0.11427534 0.94595265
7.1712418 -1.6939976 32.92651 0.30114707 -0.10338112 0.94795722
17.426571 -1.4123635 27.700949 0.57669514 -0.10383073 0.8103345
19.097015 -2.1372261 26.332266 0.63901305 -0.10215346 0.76238245
-38.250771 15.659071 -13.54975 0.91345811 0.31452969 0.25819632
8.6567955 -3.037432 32.23381 0.36574566 -0.11532089 0.92354274
11.588985 -1.0864011 31.208088 0.4276168 -0.11140972 0.89706838
15.204449 -0.31449807 29.351381 0.51309383 -0.10683028 0.8516584
12.366535 -2.7023914 30.639614 0.45741192 -0.11382487 0.88193995
20.480148 -3.7768104 24.802834 0.65648985 -0.10653196 0.74677444
21.100019 -2.6292131 24.575281 0.68397683 -0.11381153 0.7205711
23.715891 -3.7432141 21.627129 0.76863247 -0.12179963 0.62798816
10.107672 -5.0816107 31.379536 0.39882451 -0.1056619 0.91091967
15.880199 -2.9731739 28.584204 0.55253249 -0.1098557 0.82622004
14.438115 -4.2670512 29.319906 0.50060362 -0.1073257 0.85899782
18.014507 -4.6316371 26.898148 0.5996713 -0.10422122 0.79343063
16.985626 -6.8607025 27.31707 0.57210886 -0.1031611 0.81366402
2.8144984 -5.4697533 33.575264 0.18716505 -0.12908816 0.97380978
12.188738 -6.3689179 30.293762 0.44993609 -0.095370471 0.88795376
17.727644 -8.6535664 26.577209 0.60530299 -0.1128865 0.78794986
5.716876 -8.8165359 32.605717 0.28703058 -0.11122119 0.95144272
9.7448206 -8.0860281 31.227066 0.37352043 -0.10293117 0.9218936
11.506249 -9.1631508 30.306009 0.43917507 -0.10449862 0.89230335
13.499677 -9.308507 29.225479 0.49114159 -0.10289013 0.86498177
14.816013 -7.2304068 28.718054 0.51765513 -0.10487537 0.84913743
20.295294 -10.26273 24.175869 0.67875946 -0.083337151 0.7296167
15.470644 -10.603533 27.883669 0.54995811 -0.10605574 0.82843119
18.401329 -10.036459 25.814735 0.62305683 -0.09277191 0.77665544
12.903111 -11.760254 29.265383 0.48784462 -0.10301512 0.86683077
17.886194 -12.750887 25.890991 0.60463583 -0.10255474 0.78987223
13.152077 -13.89793 28.897514 0.48255464 -0.10066219 0.87006205
15.511458 -13.806759 27.457439 0.54613268 -0.10063563 0.83163184
4.5165057 -14.807685 32.145908 0.24569857 -0.10887308 0.96321279
10.924022 -12.829378 30.150518 0.42594963 -0.10590789 0.89852685
7.1887078 -14.108523 31.496428 0.30677584 -0.10061506 0.94644874
9.5765553 -14.656322 30.558174 0.38036922 -0.10047197 0.919361
17.688986 -15.033403 25.76914 0.62424845 -0.10485619 0.77415711
14.41098 -16.996414 27.769892 0.52561176 -0.10851508 0.84377527
16.017204 -15.824824 26.862947 0.55228859 -0.1049171 0.82702458
19.005875 -16.895061 24.30571 0.66844511 -0.11602087 0.73465657
7.7012291 -18.813089 30.823616 0.33693871 -0.10428099 0.9357338
10.80913 -16.563444 29.812613 0.417714 -0.10287272 0.90273589
12.163135 -17.576847 28.967958 0.48372114 -0.11209381 0.86801428
10.606419 -19.11274 29.584333 0.41092643 -0.11054759 0.90494132
16.982885 -18.479218 25.82601 0.60972553 -0.10942695 0.78502262
15.290575 -19.643583 26.8715 0.53307253 -0.11206399 0.83861512
12.446994 -20.126789 28.508141 0.48205942 -0.10690618 0.86959177
17.142878 -20.278656 25.443054 0.60685086 -0.1152897 0.7864098
7.6436076 -22.190449 30.473686 0.34764004 -0.10832477 0.93134964
14.825079 -21.817099 26.855658 0.54846412 -0.10937249 0.82899022
17.817461 -22.274662 24.631069 0.62615824 -0.10566141 0.77250338
12.575335 -23.390928 28.057623 0.48644835 -0.10197799 0.86773753
9.8873949 -22.489979 29.488276 0.41514823 -0.1092623 0.90316874
14.731651 -23.909651 26.679676 0.56089097 -0.10111753 0.82169122
7.4951348 -24.570379 30.235676 0.35639745 -0.11287536 0.92749131
11.472768 -24.35154 28.510126 0.45600638 -0.1043249 0.88384074
13.757329 -26.115702 27.022596 0.52516478 -0.10733537 0.84420437
17.144623 -24.791458 24.83676 0.62523025 -0.10830592 0.77288878
15.749815 -25.446796 25.720863 0.56734931 -0.10255259 0.81706661
10.138277 -26.166979 28.940252 0.40106288 -0.1125899 0.90910512
13.397337 -28.613422 26.908638 0.5206905 -0.10286213 0.84752625
11.691338 -27.218035 28.068645 0.46967328 -0.1100741 0.87595135
16.355661 -28.160929 25.018415 0.59672612 -0.109884 0.79488581
10.950441 -28.836733 28.222528 0.43644595 -0.10282404 0.8938356
15.181002 -29.37805 25.637781 0.58936995 -0.093235612 0.80246502
17.962725 -28.631178 23.604618 0.65565294 -0.086879633 0.75004745
13.367939 -32.230495 26.535112 0.50405765 -0.098956272 0.85798216
15.043192 -33.802814 25.248487 0.56156957 -0.12124763 0.81849772
5.5993195 -34.860794 29.752682 0.27004829 -0.098496385 0.95779556
11.38232 -32.865219 27.558357 0.45649061 -0.094251484 0.88472199
11.824487 -34.800079 27.104767 0.50374502 -0.1090171 0.85694593
15.290595 -35.497959 24.815365 0.57954121 -0.098164469 0.80900908
4.3438044 -37.240456 29.837128 0.25477487 -0.10033477 0.96178102
17.948557 -36.335091 22.57637 0.67204952 -0.080012284 0.73617089
10.153783 -35.685413 27.825462 0.43603814 -0.10390527 0.89390963
16.076801 -37.561604 23.999933 0.60019749 -0.094434388 0.79425758
13.213964 -36.804798 26.084824 0.51614255 -0.096143126 0.85108954
10.851927 -38.608349 27.169205 0.4647308 -0.10469159 0.87924111
14.11776 -38.957733 25.240427 0.54064929 -0.11281289 0.83364952
13.537634 -42.220673 25.104483 0.52328634 -0.21098186 0.8256259
8.3495989 -7.1087213 31.862322 0.33731991 -0.09673541 0.93640673
6.6977892 -4.8244944 32.688789 0.29928157 -0.10482595 0.94838917
-40.862812 30.007673 -11.870319 0.98292983 0.023233403 0.18250771
-38.493946 30.182831 -19.014584 0.88485104 0.12479644 0.4488481
-39.073841 29.808496 -17.261497 0.92005575 0.12395716 0.37166125
-36.064999 28.676706 -22.75399 0.85858893 0.15297396 0.48930976
-36.207058 26.562027 -21.949665 0.83559376 0.15746219 0.52629715
-27.811787 27.28845 -31.545849 0.61165804 0.091612495 0.78579992
-28.151047 25.463589 -30.995739 0.65334535 0.13034995 0.74575377
-38.102772 24.07435 -17.860424 0.89539361 0.13206869 0.425239
-31.893435 24.339808 -27.18652 0.72909689 0.13561757 0.67083955
-33.333076 23.987309 -25.370966 0.76246649 0.096370861 0.6398105
-38.495396 23.083246 -16.567501 0.90374464 0.14094602 0.40420282
-39.121929 22.699743 -15.007016 0.92401594 0.15259114 0.35058606
-39.110493 20.862364 -14.209898 0.93078917 0.17289551 0.32208475
-38.799442 20.760445 -15.771757 0.92260581 0.1282229 0.36380962
-38.406818 19.698299 -15.198833 0.95865065 0.1173332 0.25927141
-28.391571 20.270687 -29.675373 0.64921361 0.10352232 0.75352824
-27.138857 18.147566 -30.518753 0.61481214 0.12679958 0.77841365
-35.336193 17.994274 -20.995394 0.83872992 0.14707856 0.52430892
-29.621878 19.900274 -28.677023 0.68209249 0.13149522 0.71934611
-35.840439 17.230082 -20.336031 0.81623703 0.24485423 0.52326226
-33.920231 17.22805 -23.078096 0.82505512 0.072297268 0.560408
17.2136 30.326647 31.899002 0.52301288 -0.14900938 0.83919823
