# .PCD v0.7 - Point Cloud Data file format
VERSION 0.7
FIELDS x y z normal_x normal_y normal_z
SIZE 4 4 4 4 4 4
TYPE F F F F F F
COUNT 1 1 1 1 1 1
WIDTH 721
HEIGHT 1
VIEWPOINT 0 0 0 1 0 0 0
POINTS 721
DATA ascii
1.2486387 3.918462 9.9671373 -0.15128876 -0.91381341 -0.37690413
-1.6987013 5.106225 8.3397551 -0.15734699 -0.91225207 -0.37820369
-0.41628715 5.7948718 6.0987177 -0.15278579 -0.90934759 -0.38696685
16.43462 29.354902 -50.606319 -0.16908549 -0.94787574 -0.27007729
14.853871 30.879726 -59.581673 -0.19752963 -0.97804427 0.066418685
-22.098015 19.163637 -77.632629 -0.073630683 -0.98734289 -0.14047225
11.512177 29.510065 -48.270664 -0.1628872 -0.93810582 -0.30565563
11.554766 31.494772 -58.163902 -0.17551003 -0.98261082 -0.060598027
9.9680958 31.575905 -61.961605 -0.16294847 -0.96368968 0.21154195
13.128286 30.094536 -51.305733 -0.16793302 -0.95800585 -0.23242931
10.014624 31.823599 -59.828323 -0.17266564 -0.98363662 0.051434752
6.3427763 31.436117 -63.817272 -0.12041233 -0.92299277 0.365493
-2.7242663 4.2704091 10.761963 -0.16319452 -0.91295189 -0.3740139
-2.7447925 7.6986704 2.8306341 -0.16167891 -0.89995909 -0.4048872
-53.243759 -36.182175 64.386032 -0.12250026 -0.90250772 -0.41288453
14.740773 30.806328 -56.494625 -0.1830653 -0.97776818 -0.10225669
9.8625231 31.477762 -55.049652 -0.1683512 -0.97387666 -0.15238781
-6.1560774 -3.2042034 31.999342 -0.16610321 -0.92715907 -0.33583575
10.352526 28.112432 -43.91972 -0.15326211 -0.91888165 -0.36354816
-26.112303 19.64295 -77.823898 -0.21713845 -0.84861988 -0.48238501
-8.3734951 4.7727075 12.186095 -0.17858079 -0.91324759 -0.36617985
-5.9963059 5.2564564 9.7946692 -0.17156231 -0.91191196 -0.37280425
24.838734 -51.8545 72.932854 -0.19781059 -0.7903375 -0.57986003
-26.246628 19.304878 -76.240219 -0.06802886 -0.98669195 -0.14768586
-10.100788 6.0082874 9.9273853 -0.17611718 -0.90867257 -0.37854579
-3.9722631 6.1867747 6.6852412 -0.16975498 -0.90551049 -0.38888827
8.1151657 29.168962 -45.743973 -0.15420008 -0.92338794 -0.35153517
8.2268496 31.10836 -51.795887 -0.15887927 -0.95704401 -0.2425365
-56.362988 -35.434456 64.921318 -0.32724988 -0.93074948 -0.16313457
-6.325563 8.4837351 2.4965465 -0.17205814 -0.89943922 -0.40175253
6.92243 30.091694 -47.614101 -0.14932488 -0.93661064 -0.31695825
-5.5550184 7.0536141 5.4010735 -0.17189911 -0.90212846 -0.39574611
5.828721 32.139801 -54.91283 -0.14377137 -0.976583 -0.1600484
-10.12893 -2.4963474 31.982357 -0.17964374 -0.92585272 -0.33245274
-9.665926 -0.063515589 25.142551 -0.17460312 -0.92326617 -0.34218901
5.3636184 26.30525 -37.78627 -0.14496641 -0.89856261 -0.41421008
7.0182724 27.362576 -40.79541 -0.14664479 -0.91206396 -0.38292894
-58.772682 -34.277557 63.217972 -0.37107953 -0.92133141 -0.11596784
-10.091441 -3.411813 34.536995 -0.17523769 -0.93142056 -0.31897882
-13.682183 -0.49184206 28.387712 -0.18528323 -0.92277962 -0.33785781
1.2437208 27.975145 -40.142612 -0.14593333 -0.91025466 -0.38747886
-8.7238646 3.1751988 16.304174 -0.1780553 -0.91276163 -0.36764443
-10.493095 4.4401851 14.04368 -0.17885563 -0.91259074 -0.36768025
-6.9733768 14.467616 -10.303683 -0.16617174 -0.89158303 -0.4212679
5.5971575 28.922697 -44.133198 -0.1450343 -0.91739887 -0.37060001
-13.494514 3.0345554 18.975246 -0.17688087 -0.91478878 -0.36314553
2.9991794 29.60387 -44.708538 -0.14227548 -0.92564511 -0.35062632
-9.7901106 7.7801147 5.6331868 -0.17753115 -0.90142256 -0.39486703
-0.31809101 25.759615 -34.709675 -0.14760016 -0.88953513 -0.43236712
2.7493093 27.203711 -38.898323 -0.13711719 -0.90463674 -0.40352345
4.6644511 31.087111 -49.745834 -0.13964869 -0.95039243 -0.27794319
-59.436302 -33.402248 60.93438 -0.2796413 -0.93597478 -0.21389715
-13.352939 0.9237231 24.401003 -0.18538536 -0.91972589 -0.34602982
-13.152952 3.8914948 16.651949 -0.18252744 -0.91057247 -0.37086609
-13.1087 7.1187878 8.6240845 -0.18779898 -0.90533751 -0.38091403
-13.270017 8.2389355 6.1952987 -0.18144095 -0.89828366 -0.40020689
-13.003525 6.0271096 11.27809 -0.18410663 -0.9118371 -0.36695746
-60.833565 -32.619869 58.658554 -0.082087763 -0.90157974 -0.42475349
-6.7262964 15.71648 -13.132664 -0.1688433 -0.88872558 -0.42621449
1.1741006 32.319977 -52.357311 -0.13622007 -0.96778685 -0.21173763
-11.012438 8.8674955 3.7871115 -0.18029749 -0.89884263 -0.39946803
-8.1677885 17.137852 -15.398391 -0.16746192 -0.88651681 -0.4313288
-9.3828526 17.820898 -16.405151 -0.17138976 -0.88285941 -0.43724683
-0.18486716 29.082537 -42.215218 -0.14815852 -0.91217959 -0.38207009
-0.55781364 27.053974 -37.482498 -0.14950372 -0.90013176 -0.40915948
-4.1125975 27.960339 -38.08918 -0.15056628 -0.90347236 -0.40133205
-0.33296418 30.644299 -46.236824 -0.14579347 -0.93225628 -0.33112296
0.85515612 31.303961 -48.751019 -0.14612891 -0.94440019 -0.29454139
-15.665372 5.9398823 12.811728 -0.19825633 -0.904396 -0.37783906
-36.809483 19.081421 -71.390388 0.012423414 -0.99921906 -0.037509404
-2.8656874 30.036369 -43.526093 -0.1449143 -0.92108935 -0.36137816
-18.550941 4.7292037 17.35358 -0.18944564 -0.91002834 -0.3687259
-16.025824 5.0859866 15.166466 -0.18519264 -0.91127276 -0.36781192
-10.494067 16.01222 -12.173033 -0.16946003 -0.88815576 -0.42715645
-3.8969269 26.949942 -35.94194 -0.15100288 -0.89305347 -0.4238556
-40.127438 18.707985 -69.385529 0.047415122 -0.99719667 -0.057884715
-40.394737 19.467731 -72.086639 -0.13385674 -0.92185956 -0.36367196
-21.304022 3.0042605 23.18207 -0.20116447 -0.91679847 -0.34498319
-18.375423 6.4522691 13.079122 -0.18919767 -0.90871328 -0.37208107
-14.505658 18.996037 -16.615038 -0.18435015 -0.8764143 -0.44487417
-18.254171 11.488859 1.1973292 -0.19018777 -0.8967697 -0.3995406
-11.039048 20.212444 -20.348532 -0.17967059 -0.87099832 -0.45725304
-20.030888 5.5755358 15.952747 -0.19224674 -0.90811354 -0.37198257
-7.2995276 26.153334 -33.165939 -0.15702464 -0.88759416 -0.43303555
-67.434929 -29.947969 56.859642 -0.42525494 -0.89882213 -0.1061938
-22.569525 4.7856874 19.314135 -0.20879544 -0.91000313 -0.35818818
-17.962702 9.23069 6.1061301 -0.19251968 -0.9012363 -0.38821292
-15.55696 15.376882 -8.7278795 -0.18864374 -0.8891468 -0.41693121
-7.7830548 24.162249 -29.085539 -0.16192277 -0.87207836 -0.46180126
-14.47855 21.982935 -22.310066 -0.17887887 -0.87143189 -0.45673719
-8.7503195 25.190119 -30.631474 -0.16385348 -0.87651414 -0.45263115
-21.037241 8.4817362 9.5098877 -0.20580389 -0.8991074 -0.38632968
-13.355795 20.423338 -19.808245 -0.18023472 -0.87099999 -0.457028
-10.781705 25.444185 -30.376526 -0.16555673 -0.87837374 -0.44838655
-68.978195 -28.002466 51.477352 -0.27461162 -0.91587692 -0.29284471
-45.374729 18.415806 -66.715347 0.20718272 -0.97595298 0.067757867
-44.393208 18.588171 -67.58374 0.036677096 -0.99618709 -0.079158083
-19.970051 10.366589 4.5687056 -0.19635847 -0.89761186 -0.39463425
-15.680547 21.232563 -20.503998 -0.17748262 -0.87064564 -0.45877659
-15.665382 23.797663 -25.361757 -0.17755076 -0.87436789 -0.45161533
-24.291122 7.9781466 12.392431 -0.21226637 -0.90277189 -0.37409344
-19.328354 14.860033 -5.8349581 -0.19393362 -0.89215416 -0.40798378
-18.190277 16.049171 -8.9390173 -0.19655345 -0.88535726 -0.4213185
-14.556417 25.118233 -28.383764 -0.17355314 -0.87378579 -0.45428815
-22.756374 11.942419 2.3233817 -0.1978814 -0.89646816 -0.39646924
-16.623991 20.250731 -18.211163 -0.17851076 -0.87691367 -0.44626945
-21.805048 13.976713 -2.6497536 -0.19354698 -0.89655071 -0.39841715
-22.565296 15.175372 -4.9844112 -0.20174955 -0.88844216 -0.41227111
-70.457893 -28.069132 53.448429 -0.55602944 -0.8309322 -0.019568978
-72.480934 -25.868877 48.107738 -0.32573149 -0.91185755 -0.24982932
-17.848516 22.96134 -22.940855 -0.16968574 -0.87579042 -0.4518826
-47.616753 19.773556 -69.369415 -0.25030389 -0.80579919 -0.53668958
-19.192736 21.883539 -20.327457 -0.17872261 -0.87005848 -0.45940885
-20.508615 20.768038 -17.670671 -0.18487813 -0.87760305 -0.44230413
-49.999111 19.61297 -67.931145 -0.3894735 -0.62710953 -0.67456949
-49.906479 18.64336 -66.243004 -0.1796919 -0.88740689 -0.42452297
-75.183151 -23.64406 43.717827 -0.35019878 -0.90285254 -0.24943559
-57.276978 17.01351 -59.762192 -0.17278194 -0.89423215 -0.41291082
-75.144821 -23.185478 41.893562 -0.11039321 -0.90981883 -0.4000538
-76.15741 -24.012808 46.309788 -0.44399068 -0.88072181 -0.16492862
-54.790588 16.626518 -59.13279 0.08505173 -0.98825079 -0.12699077
-78.76841 -21.897923 43.466331 -0.78843677 -0.59463602 0.15740232
-77.10865 -22.445686 42.093521 -0.38437188 -0.89712214 -0.21778473
-79.121864 -20.191496 37.748322 -0.39636421 -0.87963909 -0.26292655
-61.108635 17.153181 -58.023129 -0.33855808 -0.77488363 -0.53379196
-80.582176 -19.001125 35.173279 -0.37047771 -0.90152657 -0.22359805
-64.186722 16.66563 -55.42683 -0.34001312 -0.76552922 -0.54621977
-82.512085 -17.746195 33.123924 -0.54918414 -0.82283086 -0.14610344
-67.452438 14.226076 -49.238964 -0.20000704 -0.8808648 -0.42903891
-68.784065 13.141245 -46.287048 0.037315939 -0.96062928 -0.27531588
-68.300987 15.466769 -50.762581 -0.38310429 -0.753313 -0.53455657
-71.520508 12.509882 -43.837978 -0.22459979 -0.87770861 -0.42329952
-71.559883 14.72848 -47.54826 -0.42329967 -0.71704221 -0.55377597
-71.162209 13.548894 -45.704868 -0.3173238 -0.82251132 -0.47199661
-74.026039 12.658236 -41.973827 -0.36702266 -0.78934658 -0.49216482
-76.699806 11.433302 -38.026913 -0.43202883 -0.77174777 -0.46664381
-76.076653 12.395024 -40.275024 -0.42481935 -0.74991244 -0.50710928
-79.791763 10.255361 -33.519485 -0.33978608 -0.80082923 -0.49317148
-82.574852 6.9273858 -25.316572 -0.39581677 -0.80799472 -0.43643272
57.986687 7.629972 -55.703682 -0.68638796 -0.54013354 0.48695722
15.967034 -9.2070122 39.765465 -0.11436431 -0.94574571 -0.30411488
1.7377489 -8.0850964 42.52438 -0.14663339 -0.94360512 -0.29682997
-7.3442502 -6.28758 41.753048 -0.17467774 -0.93827814 -0.29853269
-9.0673542 -4.697371 37.843483 -0.17657076 -0.934955 -0.30770412
35.44434 -17.590796 54.431229 -0.18259016 -0.87400585 -0.45030499
40.827312 -31.945002 65.35524 -0.49999821 -0.11280622 -0.85864806
43.061573 -34.257904 64.274994 -0.51187837 -0.1694476 -0.84218055
46.394489 -43.75602 62.64093 -0.53602475 0.036432005 -0.84341574
-16.077957 1.8387985 23.483419 -0.18672453 -0.92043322 -0.34341905
59.720657 -0.70036745 -61.038975 -0.3714298 -0.9096114 -0.1861371
58.85408 0.4693073 -64.212112 -0.22438914 -0.91685534 -0.33019045
51.814667 3.9036338 -68.063004 -0.32742912 -0.94487458 0.0015362742
10.843489 27.051609 -41.697624 -0.15037873 -0.91384423 -0.37719354
-4.5633841 25.182789 -32.101162 -0.15603141 -0.88014996 -0.4483192
48.86359 -4.4602118 18.576614 -0.082931571 -0.92755467 -0.36436886
21.009169 12.467526 -14.956687 -0.10528268 -0.8944965 -0.43450168
13.878788 16.697613 -21.686016 -0.11854884 -0.87898242 -0.46188328
47.492722 -2.6519108 14.312329 -0.071060576 -0.9258182 -0.37122911
48.300522 4.1780143 -2.0154896 -0.082242593 -0.91271847 -0.40022644
24.901001 12.776652 -16.560482 -0.086104907 -0.89413816 -0.43943471
53.894848 -10.143201 30.458328 -0.16678737 -0.9006179 -0.40133443
43.818661 -14.249104 43.933846 -0.17499015 -0.89676017 -0.40644759
29.674448 -7.0074658 29.13525 -0.077292494 -0.93958682 -0.3334702
28.616762 4.619081 0.21725829 -0.086908393 -0.91175026 -0.40144542
14.952114 3.6498888 5.8939857 -0.11208463 -0.91172725 -0.39520952
13.867727 2.8292251 8.1898289 -0.11215315 -0.92026955 -0.37486759
-19.285061 17.427237 -11.286472 -0.19655019 -0.88314092 -0.4259463
13.391933 -0.82404786 17.334034 -0.1172409 -0.92563695 -0.3597925
62.040443 -37.54068 49.065327 -0.72288406 -0.049083412 -0.68922377
55.953609 -19.94857 47.638405 -0.37480474 -0.7436496 -0.55363041
52.643066 -18.601751 47.953377 -0.30544442 -0.80858707 -0.50288236
46.734402 -15.698689 45.771633 -0.19534357 -0.88071871 -0.43148059
19.03463 -5.9748445 29.198509 -0.10969384 -0.93645674 -0.33319053
6.1358685 -2.5357828 24.589533 -0.13782932 -0.92990392 -0.34100109
10.664334 2.6059501 9.6618538 -0.12362669 -0.92015892 -0.37151581
26.293335 2.2324231 6.2469573 -0.0897967 -0.9177857 -0.38678917
-16.148499 17.019619 -11.819593 -0.19466341 -0.88376361 -0.42552093
35.719311 -7.701436 29.767372 -0.073740341 -0.93782163 -0.33919472
-6.1133509 1.5957832 18.937548 -0.17000848 -0.91910827 -0.35543922
-19.171879 12.594743 -0.77155888 -0.19497931 -0.89657205 -0.39767021
-59.645069 17.908939 -60.038567 -0.39774534 -0.67102307 -0.62572098
-33.522358 -43.425793 74.035912 -0.10784793 -0.89539421 -0.43201625
27.826023 -51.683876 71.61998 -0.24916688 -0.71188515 -0.65660888
41.136086 -50.344845 64.505257 -0.41905388 -0.30756408 -0.85428226
28.616367 -53.001961 73.979919 -0.10396986 -0.94950861 -0.29601315
70.966873 -40.582333 37.550014 -0.85226887 0.19802274 -0.48417431
0.095561124 -49.685604 76.991623 -0.2214188 -0.74008203 -0.63502163
-0.63905948 -48.984146 76.967918 -0.1449348 -0.40869036 -0.90109158
66.285065 -46.91922 45.232567 -0.22619013 -0.89503801 -0.38437611
-8.8629026 27.32053 -34.967083 -0.16191749 -0.89321631 -0.41946062
-78.201561 -12.567589 27.973379 0.90499401 -0.15221326 -0.39726174
-74.691216 -8.1497021 31.112661 0.78110945 -0.41359317 -0.46776992
-75.29364 -6.7529478 28.883152 0.78802186 -0.40405825 -0.46449804
81.53228 -17.522179 -29.274599 -0.54090285 -0.81045979 -0.22489774
81.342377 -18.239229 -25.742107 -0.9016555 -0.42283055 0.090729244
-55.21088 -27.581112 59.621635 0.66878468 -0.062143683 -0.74085438
-52.837418 -27.828823 61.769875 0.59402877 -0.14113586 -0.7919662
-55.69828 -28.241983 59.101826 0.65756518 0.033417385 -0.75265616
-52.427498 -31.459444 62.087627 0.60950285 0.075548843 -0.78917599
-56.89542 -27.57172 58.202412 0.66668481 -0.12526834 -0.73473746
-46.41851 -30.704636 65.938156 0.73840147 -0.11021308 -0.66529411
-44.748383 -32.206478 67.343636 0.4684141 0.15635033 -0.86956471
-41.219131 -30.561178 68.743599 0.38648632 -0.10043445 -0.91681039
-40.003513 -28.161253 68.576561 0.36965311 -0.16077726 -0.91515422
-30.722254 -42.520973 72.508934 0.30929363 -0.49941754 -0.80927092
-54.441792 -24.542892 59.405102 0.61597562 -0.33294544 -0.71394765
-24.718176 -42.626347 74.383316 0.30029881 0.21352254 -0.92963904
-52.692947 -20.556633 59.482105 0.68407273 -0.20895889 -0.69884241
-52.95673 -16.21488 58.326828 0.54476416 -0.26916918 -0.79421651
-48.512939 -19.577934 62.181858 0.49949664 -0.24886388 -0.82980114
-38.006744 -24.182358 68.82328 0.38464639 -0.18768719 -0.90378124
-9.7740822 -46.978348 76.450417 -0.044584047 -0.61781108 -0.78506154
-21.753819 -37.739071 75.561378 0.15729582 0.004906429 -0.98753935
-19.126888 -39.155655 76.038467 0.16756545 -0.004836753 -0.98584914
-18.010929 -35.396992 75.974792 0.15774216 -0.051210281 -0.98615158
-18.966629 -35.259575 75.938385 0.15221812 -0.069206156 -0.98592097
-23.111382 -36.122837 74.801819 0.2308536 -0.14624555 -0.96193498
-21.631552 -34.66449 75.302879 0.25973129 -0.093774736 -0.96111703
-24.299603 -34.238762 74.655487 0.2313742 -0.077195115 -0.96979731
-22.520363 -36.894627 75.389542 0.22603887 -0.1477244 -0.96285194
5.2537885 -44.94627 76.926193 -0.065427348 0.12111668 -0.99047971
1.5710815 -41.532978 77.302055 -0.047910541 0.019473229 -0.99866182
-15.904327 -34.376732 76.379097 0.15666828 -0.070668407 -0.98511982
-18.848833 -31.176653 75.502487 0.1651383 -0.099584848 -0.98122996
5.2353706 -38.685795 77.077675 -0.10963127 -0.058177523 -0.99226826
3.7424872 -37.49276 77.027687 -0.084351696 -0.04219003 -0.99554253
2.2455673 -39.984722 77.310394 -0.062195998 -0.036752295 -0.99738705
20.546942 -31.942739 73.849686 -0.28402176 -0.15053353 -0.94692731
-17.933289 -9.5277205 55.809296 -0.13745157 -0.90886796 -0.39378428
-64.405609 -20.239939 50.02446 0.67077363 -0.26116541 -0.69415802
-62.460266 -20.007153 51.803055 0.65072012 -0.25508091 -0.71519017
-62.321014 -17.096758 50.970295 0.66123611 -0.25270978 -0.70633167
-63.379456 -16.305759 49.61874 0.69186056 -0.25627559 -0.67501974
-61.746124 -13.778245 50.110188 0.65846825 -0.32327148 -0.67964339
-60.596546 -10.539639 49.819027 0.65323144 -0.33728948 -0.67788237
-62.413353 -10.104551 47.73481 0.64983815 -0.33859891 -0.68048602
30.586769 -47.877193 70.270432 -0.35741261 0.27207735 -0.89343721
26.424911 -49.513 71.09758 -0.32678705 0.13904054 -0.93481439
-26.408495 -5.9383755 50.47084 -0.12990439 -0.90896243 -0.39612138
-29.387087 -6.5641241 52.846176 -0.12415897 -0.89904732 -0.41987917
16.404434 -49.939247 73.994698 -0.24494886 0.27535838 -0.92961162
19.477264 -49.686195 73.256203 -0.19977145 0.24618594 -0.94841123
-69.543251 -24.396141 44.799873 0.27226424 -0.74812859 -0.60512453
82.71183 -16.702946 -18.338369 -0.97670066 -0.20418766 0.066054001
84.681564 -23.740435 -15.362322 -0.62136483 -0.74424559 -0.24495766
83.658272 -23.068115 -12.211419 -0.96870917 -0.24492094 -0.040203091
64.474121 -3.1254828 9.2267275 -0.23565038 -0.89443332 -0.38007632
62.317493 -1.3955251 6.2678494 -0.19103901 -0.90526366 -0.37947562
-33.976688 19.075331 -71.688232 0.14216323 -0.96963876 0.19897282
38.863674 4.2068219 -0.77833742 -0.061751079 -0.91274047 -0.40384606
34.7183 2.9962218 2.7264731 -0.076079838 -0.91297692 -0.40085536
13.490896 -10.860771 46.038681 -0.12389036 -0.94359481 -0.30705038
26.385654 -14.864588 52.002579 -0.14352226 -0.90844285 -0.39259779
47.716007 -31.295362 60.55209 -0.54788184 -0.12121636 -0.82772708
46.225502 -28.127558 61.221466 -0.53094578 -0.27180985 -0.8026306
-3.3854442 -1.0947151 24.949884 -0.16153796 -0.92637038 -0.34021074
6.1065693 -9.2533493 44.098511 -0.13714024 -0.9458403 -0.29424247
-20.304113 7.4160156 11.53903 -0.18992929 -0.90784711 -0.37381884
-15.494008 6.9196496 10.498359 -0.19106689 -0.90762687 -0.37377393
-21.152979 -46.187477 76.23896 -0.099633522 -0.80799097 -0.58070964
1.611376 -49.649727 76.16851 -0.13937694 -0.296929 -0.94467306
51.960037 -4.439672 17.569542 -0.10407301 -0.92403775 -0.36786282
34.319885 10.335273 -13.201469 -0.069481261 -0.8977564 -0.43497789
39.371498 8.8397284 -10.936811 -0.067038834 -0.90177977 -0.42696488
57.503822 -17.776541 43.409096 -0.33901069 -0.79087001 -0.50950605
55.476536 -17.006887 43.462029 -0.29621273 -0.82330215 -0.48418131
33.262299 -5.8521528 25.13538 -0.067193031 -0.93754303 -0.34131816
11.135926 -2.7583241 23.260687 -0.12571126 -0.93168968 -0.34080929
60.600739 -49.727592 54.230679 -0.083800711 -0.93174231 -0.35331818
66.103516 -46.293362 45.550083 -0.52944338 -0.69397211 -0.48794729
65.564888 -47.82777 47.85704 -0.2312054 -0.85544288 -0.46342364
13.105536 -52.634518 79.663445 -0.050416119 -0.99297667 0.10703018
11.004661 22.05691 -74.6931 -0.16056521 -0.71712005 0.67820174
10.16033 24.711716 -71.88456 -0.15464552 -0.73344004 0.66192931
14.622058 24.363436 -71.058914 -0.19312273 -0.72736585 0.65851527
12.991363 21.804319 -74.219795 -0.21007988 -0.70313603 0.67931294
15.481085 19.360779 -76.031876 -0.21845868 -0.6865049 0.69353223
18.105913 20.483585 -74.095337 -0.24556658 -0.68980032 0.68108189
14.370203 20.904018 -74.854195 -0.20782794 -0.70303839 0.68010634
54.77607 5.5073309 -72.012192 0.25722989 -0.51846337 -0.81549281
83.634048 -12.359072 -39.144009 0.74425185 -0.38946384 -0.54259306
85.088242 -18.019835 -29.915619 0.13394001 -0.87645572 -0.46247754
86.745041 -17.077557 -30.133423 0.58748662 -0.63751173 -0.49843585
85.325661 -15.08646 -34.640808 0.60777509 -0.60585237 -0.51337355
87.457047 -17.812325 -28.285534 0.80406433 -0.41910809 -0.42169759
-81.533051 -11.824675 38.73455 -0.92337245 -0.11198063 0.36721081
62.091667 -49.264652 52.870773 0.0011517857 -0.96714687 -0.25421548
88.476219 -18.497944 -25.538778 0.88213068 -0.25939295 -0.39314225
89.7146 -18.918009 -20.543055 0.97665423 -0.068578899 -0.20357664
90.162102 -23.028452 -16.009357 0.8970418 -0.34893009 -0.27122623
64.384048 -49.145161 52.930687 0.368954 -0.92281365 0.11085094
89.312935 -25.457222 -13.400388 0.4488214 -0.77972913 -0.43655682
89.998779 -26.039022 -11.156445 0.72196919 -0.61678755 -0.313582
89.860764 -27.030729 -9.1208096 0.4011822 -0.83671319 -0.37277856
89.925522 -21.018429 -18.366432 0.97078103 -0.12868641 -0.20254366
88.816605 -14.56199 -24.342756 0.95366549 -0.10313253 -0.28264064
90.112244 -21.020744 -16.129784 0.98930287 -0.039659742 -0.1403816
90.4021 -29.013241 -3.5053864 0.67046058 -0.69069296 -0.27097204
84.748436 -36.122101 12.529851 -0.11451614 -0.91013694 -0.39816684
77.027809 -44.324829 36.350014 0.29553837 -0.94927716 -0.10737711
70.86792 -47.146568 44.92783 0.22002685 -0.97327256 -0.065791734
87.796135 -35.427231 11.436666 0.39507633 -0.88349062 -0.25171205
88.180313 -12.136312 -27.175592 0.92750376 -0.11875818 -0.35444787
89.068672 -33.211624 6.4953938 0.57308614 -0.79498762 -0.19891484
71.405273 -46.309669 46.271385 0.72349 -0.52371734 0.44975814
82.435135 -41.233017 27.986765 0.60727137 -0.79448855 0.0030681354
86.045532 -37.838608 17.879013 0.42459273 -0.88327229 -0.1988741
85.678566 -38.572117 20.154161 0.70448703 -0.70960271 0.012728449
81.766472 -41.267136 30.883322 0.77761793 -0.57031256 0.26467717
89.77446 -31.7665 6.8110204 0.96979803 -0.23621389 0.060784288
87.468582 -36.277462 14.471243 0.66150361 -0.74247485 -0.10556504
62.520107 -45.087563 63.292465 0.04258813 -0.98084575 -0.19007295
78.473167 -42.84621 36.596207 0.82109505 -0.43826929 0.36568141
77.12059 -43.942268 38.614548 0.81832743 -0.44089556 0.36871576
75.571228 -44.997093 40.390121 0.67257351 -0.68821239 0.27204508
72.490509 -43.843796 45.962788 0.78910863 -0.33650264 0.51388091
90.161423 -16.868706 -18.214653 0.95483977 -0.16067618 -0.24992827
83.836205 -39.456524 26.656448 0.89685297 -0.30811933 0.31735986
83.046967 -38.379307 29.172316 0.90517747 -0.25510791 0.33996132
79.835579 -41.950436 34.607094 0.81930125 -0.488695 0.29987097
74.037018 -44.335804 43.661232 0.7920047 -0.40470019 0.45710635
59.775082 -45.513393 64.893784 0.047098164 -0.98705983 -0.15327951
62.666462 -45.743248 57.302944 0.62742496 -0.50010949 0.59684867
68.005501 -44.363503 51.946888 0.72743815 -0.4316996 0.53335655
89.716057 -30.803654 8.224494 0.97230965 -0.21551973 0.090361193
89.480019 -30.367662 10.582823 0.96903223 -0.22323543 0.10555767
85.901421 -36.781269 21.504726 0.94389856 -0.21203989 0.25316906
84.755318 -38.356075 24.643343 0.91861314 -0.3156257 0.23776108
79.259071 -40.706451 36.169857 0.86319011 -0.27695712 0.42213443
91.099136 -17.590029 -13.837383 0.95769167 -0.20340586 -0.20359915
85.745415 -34.796585 23.397753 0.92256701 -0.31904525 0.21697977
76.439125 -42.130287 40.717468 0.82535177 -0.30048582 0.47801948
74.932854 -43.007774 42.714832 0.81731123 -0.30951113 0.48600945
85.181244 -35.462101 25.143797 0.91162729 -0.33847898 0.23316868
79.921883 -38.94994 36.068478 0.84917557 -0.37468719 0.37216991
86.561516 -34.314442 20.897331 0.9372173 -0.28260139 0.20435297
82.076431 -37.960636 31.771059 0.88447857 -0.32474566 0.33501935
76.876472 -40.14716 41.319977 0.81478751 -0.38348842 0.4348079
73.744743 -41.78167 45.6777 0.78351867 -0.40470126 0.47150317
83.233955 -36.410065 30.282907 0.88404858 -0.37786698 0.27509019
55.606556 -46.108662 67.228027 0.054353554 -0.98504806 -0.16348098
90.70768 -26.566179 4.7686968 0.94460577 -0.32662335 -0.032204468
83.984795 -36.765896 27.48749 0.91088867 -0.27385566 0.30868259
78.319275 -38.934521 39.818382 0.76522166 -0.52627802 0.37076578
68.704094 -43.25452 56.278473 0.079918019 -0.97669381 -0.19920421
87.481735 -32.165077 21.19936 0.8827306 -0.43482772 0.17807752
52.629196 -46.388634 68.470802 0.030566182 -0.99275285 -0.11622147
50.977386 -46.517544 69.908531 -0.017269803 -0.99694461 -0.07617835
90.68071 -26.897118 8.2865829 0.93675369 -0.34974253 -0.013142569
93.362671 -25.316759 5.7829833 0.090908803 -0.91248447 -0.39888322
91.288628 -25.675146 6.130137 0.39655587 -0.85389376 -0.33705899
92.796036 -26.583792 8.6553288 0.14638153 -0.8997429 -0.41113877
89.141052 -30.491522 17.875208 0.37958995 -0.867908 -0.32038608
80.202728 -38.977127 41.899124 -0.057728123 -0.99782503 0.031822566
91.270042 -30.497961 18.207581 0.050598726 -0.93612057 -0.34802008
89.097763 -31.4419 20.478098 0.34490895 -0.91261709 -0.21947193
89.282227 -32.291145 22.819597 0.048037887 -0.93777364 -0.34390825
82.459244 -37.043354 36.030628 0.41319901 -0.39211953 0.82189345
91.483765 -29.401525 15.377944 0.052963495 -0.93247932 -0.35731938
88.971321 -31.947676 2.391825 0.20617555 -0.91330224 -0.35124174
31.403635 11.909787 -80.245964 -0.057779718 -0.81391138 -0.57810879
-25.925697 20.584234 -78.740631 -0.226972 -0.7166537 -0.65946281
-84.827553 -6.8939729 31.016796 -0.95433623 -0.12483455 0.27140126
-28.868755 19.94928 -77.134933 -0.15034127 -0.87135899 -0.46704501
-47.802948 20.54126 -69.783661 -0.47544831 -0.33620706 -0.81296605
-30.500074 21.638426 -78.966675 -0.32309994 -0.39359501 -0.86063313
52.70071 7.2634354 -73.28334 0.48785615 -0.011936969 -0.87284243
48.41647 8.4332428 -75.775566 0.32185063 -0.36456555 -0.87378722
28.90336 12.395196 -80.810349 -0.072842143 -0.84167492 -0.53504896
37.626492 11.168712 -79.821396 0.018238412 -0.72832042 -0.68499398
83.722832 -38.080814 17.641083 0.022029502 -0.93877 -0.34383953
34.030735 12.475801 -81.248375 0.12241036 -0.50678986 -0.85333449
-33.879578 21.051542 -76.728905 -0.32658851 -0.66148698 -0.67511106
-27.412817 21.354916 -79.495796 -0.14317174 -0.75776315 -0.63662934
27.968996 15.405465 -83.201424 0.27712989 0.23194762 -0.9324159
-35.83662 22.244492 -76.726395 -0.39954975 0.16520302 -0.90170282
-58.140224 19.996799 -62.607628 -0.66181433 0.094432034 -0.74369651
-41.889652 22.021025 -73.660576 -0.48686928 0.23118816 -0.84232438
-55.681702 26.965485 -60.411007 -0.63284832 0.35901007 -0.68601364
-88.202942 -4.5516858 16.845022 -0.97394878 0.10957053 0.19854015
-57.255474 27.847395 -58.568993 -0.64480639 0.43290156 -0.62993723
-86.114319 -4.3529954 27.161713 -0.97021323 -0.030034566 0.24038298
-86.888954 -2.5891473 24.932793 -0.95302159 0.07844311 0.29256886
-86.833649 -4.822752 23.146376 -0.97739607 -0.073473573 0.19823891
-38.736076 20.841646 -74.777397 -0.333215 -0.54789627 -0.76731831
-87.549461 -2.5592878 19.977695 -0.98204821 -0.05675846 0.17988807
-36.858219 19.929045 -74.287071 -0.15680689 -0.88512832 -0.43813169
-89.33242 -0.40496725 -4.3840871 -0.60502386 -0.71912849 -0.34176078
-88.825523 0.52045381 -7.0350847 -0.55278414 -0.74230713 -0.37869501
-89.064499 2.6348741 -9.4638529 -0.98383743 -0.015913293 -0.17835529
-88.304184 1.477075 -9.3059111 -0.51947796 -0.75206232 -0.40564126
-78.62278 -13.855875 44.679195 -0.89371997 -0.21465084 0.39394119
-88.327217 -2.1695342 14.340462 -0.99193859 0.033884868 0.12210533
-83.334663 -9.0453386 34.884838 -0.94037122 -0.1530465 0.30377439
82.653389 -19.65822 -24.349434 -0.49585015 -0.83806896 -0.22753708
-44.398472 23.086508 -71.353119 -0.49501398 0.4615044 -0.73618937
-18.357256 20.329462 -80.831612 -0.23335606 -0.83708292 -0.49481016
84.725769 -16.569025 -32.470066 0.19652961 -0.85915345 -0.47247374
55.315559 7.0874805 -71.922417 0.50751966 -0.081787676 -0.85774964
-83.519501 8.2521868 -27.450438 -0.56566 -0.67623138 -0.47195327
-52.223537 21.133184 -66.968536 -0.5780316 0.39823541 -0.71224159
-85.578812 2.7017155 -14.48705 -0.40482274 -0.81361878 -0.4173044
-88.42627 3.6997609 -12.742198 -0.95936984 -0.14402086 -0.24262607
-86.038124 6.7280889 -21.664305 -0.89535207 -0.22517298 -0.38424176
-84.403328 9.2147236 -25.941074 -0.92371458 0.28099388 -0.26037231
-82.932899 9.7582073 -29.979763 -0.87783784 -0.12941833 -0.46114165
-72.007278 16.112242 -48.124092 -0.79686773 0.2568545 -0.54683405
-80.026207 11.456665 -35.652409 -0.6675269 -0.5367403 -0.51605976
-79.573074 12.507629 -36.453968 -0.86978382 0.3696627 -0.3268418
-75.571953 13.622598 -42.530151 -0.5188731 -0.66154701 -0.54141146
-78.520569 12.764482 -38.640858 -0.81823218 -0.16010381 -0.55214381
-87.568726 -1.0034348 21.760805 -0.97751004 0.057008978 0.20303722
-76.692589 10.085824 -35.98777 -0.18173115 -0.90904415 -0.37498337
-66.461662 17.11747 -54.279724 -0.53316629 -0.55667382 -0.63706201
-47.259148 21.667341 -70.341576 -0.53067428 0.2057799 -0.82221615
-38.512604 22.387564 -75.356979 -0.43882015 0.32950455 -0.83598065
-25.464745 22.363701 -80.774284 -0.32764181 0.070995376 -0.9421308
72.607231 -45.919315 41.372849 0.12126186 -0.95466608 -0.27186099
-18.260296 24.839478 -81.404892 -0.23150371 0.44179991 -0.86672884
-23.882362 20.4603 -79.738861 -0.27370706 -0.67551345 -0.68466491
-21.419153 22.201687 -82.113022 -0.28843331 0.10766067 -0.95142812
-84.479301 -16.278576 32.358089 -0.76932371 -0.63885862 0.00088532042
-20.060022 20.158453 -80.36882 -0.12124628 -0.80401319 -0.58211863
25.364622 13.908867 -82.520149 -0.019795971 -0.68168157 -0.73138112
54.606037 7.4528036 -71.76062 0.40095118 0.13801917 -0.90564281
38.767593 8.8360081 -76.764122 -0.16037528 -0.92651463 -0.34036812
32.904007 10.711919 -78.900551 -0.18068776 -0.92904478 -0.3228431
16.969788 17.02927 -85.342308 0.04595447 -0.30723944 -0.95052201
-61.596539 19.042208 -59.480164 -0.69837457 0.11305616 -0.706747
-54.9702 20.302305 -65.239265 -0.62401539 -0.0012592751 -0.78141093
-35.593777 20.489431 -75.255409 -0.1920151 -0.75028551 -0.63261509
49.052837 6.1960917 -73.380745 -0.0063869921 -0.82666337 -0.56266046
36.695011 10.448229 -78.508263 0.0018205805 -0.78470314 -0.61986905
35.857414 10.021856 -78.349808 -0.10126167 -0.87188059 -0.47913495
-64.068214 18.396811 -57.066708 -0.71254694 0.099014677 -0.69460279
22.880356 14.378877 -82.542984 -0.064416774 -0.75107092 -0.65707153
18.402306 14.901599 -82.876495 -0.10610675 -0.81889778 -0.56404603
22.039818 16.181889 -84.570831 0.21118519 0.156525 -0.96483195
20.351805 15.827477 -84.33387 -0.023945319 -0.72995889 -0.68307137
19.434343 17.036045 -84.893974 0.16751382 0.1103441 -0.97967511
-52.251884 19.476255 -66.505798 -0.41978085 -0.62503034 -0.65811944
-41.283222 20.499458 -73.042656 -0.31140348 -0.69645768 -0.64650953
-17.498819 22.078775 -83.156845 -0.22350571 0.13993441 -0.96460539
81.751396 -1.2958498 -42.744576 0.88985473 0.19129692 -0.41420284
85.423813 -33.665901 6.5384688 -0.24447234 -0.88929874 -0.38649848
86.0616 -32.85527 4.0689406 -0.19904223 -0.90742356 -0.37008747
86.112518 -21.661385 -22.187756 -0.065800294 -0.91229242 -0.40421891
84.378868 -20.749378 -23.490034 -0.22776946 -0.89090776 -0.39294329
84.926086 -19.639877 -25.954908 -0.1102144 -0.93331778 -0.34171745
81.525124 -12.64533 -40.710705 0.30165276 -0.79938817 -0.51960009
80.994164 -11.8208 -42.174469 0.14302231 -0.83548295 -0.5305779
77.10685 -11.024093 -44.216221 -0.047934514 -0.90877688 -0.41452008
78.887695 -9.0392933 -47.226795 0.48544866 -0.61632848 -0.62006354
75.495644 -8.9987183 -48.015923 0.017930757 -0.87695366 -0.48024035
76.930969 -7.7525516 -49.756187 0.27438068 -0.74796635 -0.60436887
70.708855 -5.7005777 -54.138176 0.0072640907 -0.86030364 -0.50973028
74.470772 -5.3190117 -53.559872 0.42576873 -0.60378617 -0.67391634
69.976753 -4.5183754 -55.868774 0.055541027 -0.82559115 -0.5615288
72.859406 -4.5149002 -55.446194 0.28157187 -0.72318202 -0.63065439
69.902672 -3.0357265 -58.068199 0.19412415 -0.77506471 -0.60132402
69.586082 -0.47008744 -59.469246 0.65658188 0.018763179 -0.75402135
69.188995 1.5038896 -59.115162 0.30726466 -0.048654426 -0.95037955
70.157661 0.53413486 -59.428753 0.32858995 -0.052493531 -0.94301277
56.944805 5.450069 -70.165421 0.631185 -0.044549372 -0.77435184
59.212318 7.2261639 -67.484833 0.63928419 0.11991165 -0.75956362
-16.250088 20.230467 -82.345329 -0.24232453 -0.67958254 -0.6924206
88.975807 -34.026569 9.2324209 0.85171169 -0.52204448 -0.045351595
88.840034 -33.657776 11.865039 0.95612496 -0.26881832 0.11645497
14.04108 17.421816 -85.510025 -0.017252803 -0.42458835 -0.90522212
90.767471 -28.812525 -2.2039959 0.95948696 -0.28075218 0.02372518
90.331047 -29.778635 -1.7123142 0.83357048 -0.53546494 -0.13578476
65.074135 2.0741074 -63.373707 0.72000664 -0.042258523 -0.69267929
75.920387 -6.4066267 -51.817451 0.58038926 -0.45828697 -0.67314297
91.172455 -26.054922 -7.68788 0.91463214 -0.3532899 -0.1965562
64.899971 2.0049002 -64.41748 0.67983288 -0.45909476 -0.57189089
89.26136 -20.594357 -21.772816 0.91064829 -0.29212835 -0.29219979
86.29174 -15.459733 -32.544121 0.79062819 -0.39936203 -0.46413046
88.177704 -21.343395 -22.19338 0.25817528 -0.86918694 -0.42173404
90.909859 -27.195534 -1.7644359 0.99831867 -0.0075784386 0.057466157
90.454384 -27.470222 3.0258462 0.98727781 -0.12385451 0.099712968
90.416756 -24.702232 -12.81054 0.91584677 -0.32585162 -0.23461749
90.889633 -23.103842 -10.089204 0.99086648 -0.058212474 -0.12163393
90.935974 -25.868998 -4.6888137 0.99987948 0.0081248945 0.013222779
90.864632 -27.597095 0.080370486 0.99182439 -0.12275455 0.034866985
91.041664 -24.832132 -9.2582331 0.99201667 -0.089238375 -0.089103155
90.521187 -22.783688 -13.846572 0.98930693 -0.051052608 -0.13662151
90.572006 -20.588497 -13.860456 0.97523743 -0.11969418 -0.18597145
91.23278 -19.957745 -10.231306 0.96986979 -0.20105889 -0.13757876
91.133728 -25.199722 1.6141092 0.96466774 -0.26331687 -0.0089677749
90.725533 -21.683676 -12.097573 0.98518163 -0.11190428 -0.12997898
91.005066 -25.015223 -2.1820416 0.97775984 -0.20533375 -0.042705517
90.00338 -18.766571 -18.574385 0.98793721 -0.03374872 -0.15113263
91.375725 -23.240858 -3.3042662 0.96400553 -0.25389907 -0.078921214
91.411087 -18.281532 -11.519784 0.96215081 -0.20256798 -0.18229695
87.642555 -14.622325 -28.338327 0.95634091 -0.01165261 -0.29202119
89.437134 -16.336946 -21.092926 0.97086191 -0.060766276 -0.23180726
87.626122 -12.19239 -27.952164 0.93965012 -0.075421989 -0.33372012
0.97214687 18.62359 -84.739029 -0.1460243 -0.64593035 -0.74930024
3.3584385 18.571758 -85.178474 -0.08521045 -0.71493721 -0.693977
-2.5947053 19.747 -85.025291 -0.14402749 -0.6518786 -0.74452025
-11.544633 19.564447 -82.399147 -0.14621697 -0.79075634 -0.59441149
-13.461951 19.932852 -82.835777 -0.11796272 -0.81177723 -0.57192874
-12.909563 21.570164 -84.147614 -0.19149263 -0.14871357 -0.97016227
4.1730132 18.064713 -84.029457 -0.082114048 -0.83633506 -0.54203409
-4.4523249 18.562914 -82.852951 -0.14068961 -0.87274969 -0.46745524
-6.7388034 19.785341 -84.023224 -0.16052246 -0.72577906 -0.66893733
2.3226292 17.667706 -83.501495 -0.13416925 -0.91997749 -0.36829346
6.7327881 18.522449 -85.488434 -0.091640182 -0.62981927 -0.77131689
85.247536 -37.171589 15.154081 0.10359651 -0.93900377 -0.3279323
86.70137 -34.227177 7.477191 0.15396059 -0.92940104 -0.33542481
83.339119 -36.785179 14.878165 -0.30622333 -0.85604519 -0.41642985
83.428833 -35.575027 12.612563 -0.46188632 -0.78245205 -0.41764787
86.874626 -30.94828 -0.70532054 -0.052345809 -0.92935455 -0.36545858
86.629486 -31.929258 1.6920406 -0.13200335 -0.90398371 -0.40668008
85.786888 -23.59037 -17.55238 -0.040021468 -0.91464895 -0.40226305
88.940224 -24.388836 -15.584111 0.25506833 -0.8575685 -0.44667265
81.905807 -16.693974 -32.604504 -0.15161049 -0.9098748 -0.38618922
80.814613 -15.973292 -33.148121 -0.34860569 -0.8858574 -0.30615512
89.154388 -23.237265 -17.628267 0.26283404 -0.86328393 -0.43088174
82.209557 -14.95123 -36.357834 0.061763715 -0.88790613 -0.45585966
89.171112 -22.386202 -19.455606 0.61067122 -0.68831211 -0.39154443
81.379112 -13.586787 -38.844139 0.13878706 -0.85443068 -0.50068581
73.373734 -7.4199729 -50.874565 0.017718703 -0.86972922 -0.49321097
85.247414 -19.035051 -27.740919 0.16984957 -0.88173944 -0.44009849
64.924622 -1.991582 -60.538822 0.047572367 -0.84604532 -0.53098422
63.195335 -1.3764018 -61.609695 -0.1151567 -0.89200914 -0.43710265
63.356388 1.8976719 -65.312233 0.46792546 -0.55463761 -0.6880573
78.524185 -12.792379 -40.473053 -0.098653264 -0.89508605 -0.43484303
80.016968 -10.911871 -43.962391 0.32570821 -0.77186358 -0.54602277
57.069309 2.0184877 -67.111588 -0.040200435 -0.87165302 -0.48847201
84.687576 -12.236479 -36.829681 0.91930461 0.015587755 -0.39323798
82.19062 -10.477537 -42.346542 0.82374901 -0.1994213 -0.53072476
63.611279 0.54056895 -64.034126 0.25408012 -0.69625723 -0.67131895
85.379135 -10.263228 -34.358017 0.92702651 0.0067011439 -0.37493595
74.699745 -4.1714745 -53.68869 0.81054384 0.080264993 -0.58015192
72.462425 -3.6781037 -56.55415 0.48107624 -0.54182762 -0.68919408
72.730507 -3.5074408 -56.2929 0.86291039 -0.0046631582 -0.50533545
61.633934 1.2968286 -65.756973 0.19800678 -0.76815265 -0.60888004
69.531059 -2.0194027 -59.689449 0.41767278 -0.39522853 -0.81813437
82.287971 -6.2677016 -40.857929 0.88656503 0.0011476343 -0.46260259
60.0299 3.7028241 -68.367302 0.59666866 0.12545758 -0.7926203
60.024864 2.6538389 -67.736191 0.073877104 -0.79670471 -0.59983647
67.218719 -0.13925776 -62.337471 0.62514347 -0.19516833 -0.75571495
71.958076 -1.5774676 -57.940163 0.66399008 -0.18210174 -0.72522831
62.265083 2.414041 -66.705284 0.51606297 -0.19934969 -0.83302987
73.799034 -1.788697 -53.891979 0.8711192 0.05089898 -0.48842666
64.044289 3.4570024 -65.760788 0.55454534 -0.021398351 -0.83187836
76.904861 -3.9788332 -50.152405 0.83155018 0.11272985 -0.54389012
80.29258 -4.150363 -44.440304 0.85014349 0.0047221398 -0.52652985
84.554802 -5.8720994 -36.784569 0.90500057 -0.0034092497 -0.42539671
65.845932 3.2395732 -62.342266 0.78047097 -0.096084222 -0.61776435
53.862564 3.9741237 -69.938919 -0.0072439052 -0.83260769 -0.55381566
57.666241 7.7844634 -69.16494 0.77138877 -0.33621123 -0.54029757
72.814629 0.42815563 -56.518425 0.84888005 -0.036644965 -0.52731365
76.329948 -1.9916886 -50.456825 0.8150245 0.10521955 -0.56979275
78.834503 -2.822684 -46.801388 0.84122264 0.064808473 -0.53679079
67.465813 4.596024 -61.980675 0.86883539 -0.1143396 -0.48171735
74.104622 1.7793535 -52.994736 0.86117381 0.052652117 -0.50557649
77.945885 -0.66695416 -48.065235 0.81158531 -0.020760944 -0.58386499
75.510361 0.047714703 -51.31472 0.78893304 0.05358785 -0.61213809
78.105064 1.4795527 -48.137161 0.82918996 0.33802652 -0.44517651
55.948608 4.4821067 -70.453934 0.36662221 -0.54986817 -0.75048858
83.557068 -19.555229 -26.526428 -0.29986158 -0.90779305 -0.2932488
86.737206 -19.72226 -26.050179 0.2130888 -0.84940434 -0.48281008
84.251198 -13.892526 -37.235542 0.62036192 -0.55718881 -0.55198884
57.474289 3.6288378 -69.325592 0.15610594 -0.6809209 -0.71552616
52.665768 5.18398 -71.68792 0.078220591 -0.7604292 -0.64469302
61.445992 -0.18290202 -63.480869 -0.05614597 -0.87499589 -0.48086363
52.856663 3.2722616 -68.503212 -0.22396491 -0.93532455 -0.27387536
7.6477561 16.806383 -83.556046 -0.1537614 -0.83274025 -0.53188455
-16.408972 19.610651 -81.1054 -0.18147801 -0.902677 -0.39017943
-20.501083 21.082935 -81.664879 -0.22895072 -0.70496076 -0.67127633
88.548439 -19.717707 -24.463905 0.75448072 -0.49097225 -0.43555146
88.375031 -32.92152 4.6181002 0.17239882 -0.92565471 -0.33681157
89.762657 -31.999292 4.1825304 0.84015363 -0.53367841 -0.096588194
90.163681 -30.320734 4.4835773 0.98706418 -0.11272902 0.11400169
88.094276 -34.807449 14.483728 0.94497132 -0.28717658 0.15671298
87.058701 -36.437778 17.869555 0.93717802 -0.29346225 0.18861984
84.1558 -39.527691 22.097816 0.37933239 -0.90810895 -0.17732775
83.841972 -40.093746 24.850948 0.67426664 -0.73822564 -0.019683113
87.520233 -34.09285 16.568954 0.94890863 -0.20473497 0.24011695
86.92057 -34.776268 18.957678 0.95538819 -0.1878446 0.22792055
78.687881 -43.543617 34.606117 0.67984492 -0.72553831 0.10679466
87.773857 -32.248566 18.074028 0.87147015 -0.48744953 0.054154452
88.746368 -30.425791 16.437794 0.92522591 -0.35025731 0.1458655
74.322456 -45.677174 40.622467 0.37815088 -0.92545891 -0.022972453
82.362625 -39.765537 30.316811 0.91441727 -0.22514912 0.33637631
69.227646 -47.596615 47.042564 0.20877539 -0.97447139 -0.082574673
90.096146 -29.132143 5.8515434 0.98409402 -0.17496453 0.030762415
77.797127 -41.617897 38.505428 0.84508181 -0.30012757 0.4424479
80.78434 -40.333687 33.339863 0.88116777 -0.22592494 0.41533282
72.950798 -46.258289 43.952007 0.64614213 -0.72394973 0.24165484
67.255821 -48.330353 49.392166 0.32505199 -0.94562727 -0.011415684
65.337807 -48.798023 50.494949 0.065445408 -0.97706026 -0.20265771
89.777679 -30.980921 0.65102428 0.4676913 -0.83649868 -0.28554308
84.926102 -34.203674 28.399477 0.88450676 -0.3876707 0.2595363
81.330719 -37.84417 33.775482 0.84437388 -0.40570843 0.34990478
70.586182 -44.950752 48.287426 0.76977694 -0.3359721 0.54273957
67.30542 -47.803833 50.958332 0.68973446 -0.54836148 0.47282773
59.314907 -50.139458 58.044827 0.51047707 -0.77040207 0.38196048
19.994766 -52.834431 78.718445 0.13008074 -0.7932362 0.59485739
4.0577755 -49.244175 82.803802 0.052494567 -0.34789488 0.93606275
64.907547 -48.122467 53.848663 0.66941124 -0.439311 0.59907806
52.172264 -51.178688 64.124695 0.56740832 -0.50282788 0.6520828
49.994347 -51.882359 65.125572 0.27028799 -0.92522764 0.26626712
14.214199 -51.987137 80.72084 0.15975906 -0.51187456 0.84407431
66.409035 -45.757442 53.242313 0.7305935 -0.34936187 0.58666813
61.597195 -49.901093 55.42424 0.44476146 -0.85093814 0.27944872
37.142082 -52.562492 72.897491 0.33438212 -0.7288034 0.59752333
27.476503 -52.307724 77.151855 0.26953846 -0.49977389 0.8231495
82.828812 -36.080307 32.569599 0.85531414 -0.51698869 0.034064561
45.250515 -51.877274 68.852722 0.45992592 -0.58866918 0.66478324
44.72958 -52.639782 67.346565 0.11779696 -0.99224138 0.039761573
42.171806 -52.757847 69.630165 0.2237981 -0.89944595 0.37538168
30.217331 -52.993607 75.728325 0.23971158 -0.72420168 0.64658356
12.915688 -49.515125 81.807129 0.1483447 -0.34680995 0.92612994
11.54126 -51.670185 81.28183 0.099279903 -0.51836425 0.84937745
82.227776 -36.560135 34.265148 0.60514206 -0.79163778 0.084337078
61.3922 -47.868576 57.620018 0.66772205 -0.4063386 0.62372762
59.653522 -48.149185 59.21122 0.65039259 -0.37896791 0.65831053
54.026939 -50.02219 63.438549 0.58842283 -0.42390436 0.68852276
24.247484 -52.676662 77.953476 0.19501273 -0.60940015 0.76850593
17.185699 -51.331516 80.459763 0.1645956 -0.4422698 0.88164943
64.992584 -46.058445 54.57103 0.64434725 -0.39815968 0.65290534
63.926506 -45.67659 55.741608 0.68392646 -0.41333717 0.60116303
48.476284 -51.513847 66.501862 0.46080047 -0.62757146 0.62754834
39.342075 -52.890903 70.807968 0.22187005 -0.91109926 0.34737843
21.980579 -50.506298 79.578384 0.22921097 -0.41406202 0.88091713
18.032127 -49.474255 80.885353 0.19678776 -0.33386493 0.92185074
9.4909801 -49.022511 82.437073 0.1077944 -0.33213618 0.93705171
41.074955 -47.036148 74.497551 0.36881754 -0.54656714 0.75182313
56.978348 -48.447788 61.548279 0.60056114 -0.3246145 0.73071998
50.400116 -50.503471 65.994385 0.55881119 -0.36334285 0.74546093
41.802742 -50.902237 71.398453 0.42389372 -0.45381001 0.78381801
27.091501 -50.694695 77.914413 0.28224877 -0.35870945 0.88975453
53.224331 -47.747353 64.701195 0.58198726 -0.38451889 0.71654451
33.890041 -51.862152 74.991997 0.39016399 -0.45512986 0.80039299
20.095257 -51.044678 79.866386 0.23202653 -0.40299276 0.88530242
35.33588 -50.277927 74.84375 0.40397015 -0.34516618 0.84715307
14.980659 -49.61412 81.352478 0.16966303 -0.35880998 0.91786158
59.427631 -46.379448 60.198971 0.64642519 -0.45453018 0.61281061
48.979584 -48.412521 67.727776 0.54782301 -0.37665066 0.74701017
46.993546 -49.916325 68.568474 0.52297962 -0.37176138 0.76699787
31.38048 -51.069233 76.379326 0.33572131 -0.3622475 0.86952162
7.7170153 -47.74054 83.040222 0.080548719 -0.40978366 0.9086194
65.215927 -43.899101 56.11985 0.55416441 -0.75579661 0.34881699
51.173504 -48.340343 66.057762 0.57654208 -0.37416163 0.72636241
38.796532 -51.250572 72.717239 0.42568263 -0.44989812 0.78510255
69.485756 -42.402439 52.135693 0.45205209 -0.87934923 0.14964618
29.322807 -50.309536 77.347 0.31235451 -0.36847231 0.87559289
13.419705 -47.334049 82.609634 0.12079414 -0.47437602 0.87199545
10.86786 -47.599663 82.84343 0.1025214 -0.4216215 0.90095764
39.20089 -47.06147 75.303741 0.26876611 -0.4271259 0.86332399
44.394382 -49.205383 70.41774 0.46682963 -0.41321832 0.78187007
42.166027 -48.719337 71.889702 0.4387005 -0.43036273 0.7888788
33.494595 -48.695423 76.158051 0.35401437 -0.43020895 0.83041799
24.045013 -49.57951 79.333351 0.26120237 -0.39936981 0.87879294
15.872419 -48.345413 81.735069 0.16763349 -0.43240902 0.88595796
71.573616 -41.966957 48.959526 0.72520459 -0.51704144 0.45469382
61.583569 -45.070633 58.712315 0.62634355 -0.51315123 0.58683014
57.919292 -46.519798 61.522274 0.54949743 -0.60210901 0.57923859
39.963791 -49.348503 72.86866 0.42735246 -0.39402324 0.81370479
37.185513 -49.534302 74.249092 0.41274449 -0.37334186 0.83081758
31.709637 -49.203175 76.814232 0.34139872 -0.42786497 0.83688617
55.252472 -46.870777 63.340084 0.56637812 -0.45821092 0.68502444
50.829876 -46.353195 67.791145 0.40752888 -0.78455812 0.46732089
45.922714 -48.301479 70.000298 0.51975787 -0.46473381 0.71685028
16.932806 -46.442284 82.727837 0.1310007 -0.53636265 0.83375889
72.576469 -41.823704 50.981346 0.15096736 -0.98449075 -0.089368984
63.233501 -44.280525 58.690876 0.31207141 -0.94050914 0.13436459
28.691755 -47.836456 78.591209 0.27806816 -0.45127061 0.84795815
18.284489 -47.277355 81.697861 0.171134 -0.51287335 0.84123367
69.911949 -42.672245 53.922009 0.097989984 -0.97847384 -0.18162248
67.004967 -43.167358 55.169453 0.35723323 -0.93238819 0.055105627
47.665207 -47.12418 69.395447 0.50748336 -0.50525671 0.69798017
41.6824 -47.014118 73.461777 0.46049181 -0.56546682 0.68424743
66.254318 -44.016247 59.044228 0.1420881 -0.97887272 -0.14703476
25.848139 -48.517689 79.170845 0.28233612 -0.43997365 0.85247254
18.5623 -46.892914 82.459938 0.15991125 -0.58767533 0.79313684
69.578964 -46.662289 48.766804 0.72139996 -0.49816701 0.4810527
64.447617 -44.571865 61.007107 0.0560521 -0.98370767 -0.17081349
42.956245 -47.404694 72.587021 0.36037895 -0.58230245 0.72873241
61.013138 -44.653736 60.768387 0.285813 -0.95468783 0.082958482
58.230099 -45.366882 62.762764 0.28042486 -0.95499015 0.096724451
45.354206 -47.001446 71.646805 0.51895523 -0.5070219 0.68819636
35.639591 -48.117626 75.588539 0.40779278 -0.47110257 0.78215563
60.731789 -45.130962 63.054398 0.085857876 -0.98018914 -0.17848703
56.583546 -45.565495 64.680183 0.22618483 -0.96605855 0.12478496
54.432842 -45.915401 65.261719 0.30441722 -0.91867161 0.25173905
39.128761 -47.682823 74.216187 0.33995724 -0.57483774 0.74430555
-50.89283 -31.557852 72.043839 -0.58527929 -0.36727539 0.72288102
-57.618034 -29.836248 67.019791 -0.65053648 -0.24383861 0.71926695
-47.215752 -32.354282 74.469391 -0.54658073 -0.37007815 0.75119352
-53.360771 -31.065517 70.226624 -0.6167233 -0.31709036 0.72049022
-57.56176 -27.161856 68.443741 -0.66586155 -0.34489283 0.6615718
52.248306 -51.747566 62.579861 0.19245826 -0.98000401 0.050517276
46.864361 -52.370106 66.019592 0.17152423 -0.98191661 0.080119655
45.181114 -52.256706 65.555908 -0.14997311 -0.90652317 -0.39461857
32.738182 -53.029144 72.014961 -0.11347774 -0.94884634 -0.29464138
30.157171 -47.135849 78.839912 0.28696996 -0.52002335 0.80450231
16.209551 -52.563808 79.813316 0.08148019 -0.83148062 0.54954606
27.977129 -47.227154 79.384041 0.24805123 -0.55072445 0.79697752
25.597368 -46.278011 80.586418 0.22887602 -0.5529089 0.80119127
23.069263 -46.553108 81.139961 0.21526253 -0.52421463 0.82393026
20.721144 -47.051968 81.512291 0.20863959 -0.53445858 0.81903821
7.8627706 -50.148445 82.227951 0.090276465 -0.3112089 0.94604391
6.7563076 -51.360744 81.959938 0.077569708 -0.46954307 0.8794955
4.039979 -51.381893 82.167282 -0.027053835 -0.76995105 0.63752913
-0.43689784 -50.728806 82.444328 -0.064962842 -0.67979485 0.73051953
11.52424 -46.568024 83.326553 0.1023149 -0.51812285 0.84916461
-3.0355005 -49.929359 82.668976 -0.048499223 -0.41604552 0.90804952
14.359244 -45.13538 83.926353 0.10964432 -0.54782963 0.82937378
2.4365034 -47.344631 83.547928 0.0086075049 -0.41190666 0.91118544
-5.9834146 -49.528389 82.712944 -0.084130771 -0.44403529 0.8920508
-8.8961868 -49.584206 82.249626 -0.17702949 -0.87487495 0.45083743
-12.371689 -48.762745 82.237175 -0.15682089 -0.68410319 0.71232724
6.7043891 -42.902664 86.278198 0.04168712 -0.52023357 0.85300601
6.321291 -45.680767 84.22506 0.046056304 -0.50200391 0.86363816
-3.4904115 -47.698601 83.361549 -0.032648899 -0.35552806 0.9340952
-6.3908968 -47.669853 83.174393 -0.094024949 -0.34027556 0.9356131
-15.757197 -47.79834 82.163017 -0.19119248 -0.52922934 0.82665694
