# .PCD v0.7 - Point Cloud Data file format
VERSION 0.7
FIELDS x y z normal_x normal_y normal_z
SIZE 4 4 4 4 4 4
TYPE F F F F F F
COUNT 1 1 1 1 1 1
WIDTH 726
HEIGHT 1
VIEWPOINT 0 0 0 1 0 0 0
POINTS 726
DATA ascii
-38.785149 6.4440603 -24.06464 -0.60366154 0.66569066 -0.43868983
-43.658741 6.5516653 -15.01815 -0.61175394 0.75173408 -0.24627796
-44.729782 5.9436965 -14.693563 -0.87614822 0.33922595 -0.34247628
-45.242516 6.2590828 -12.108248 -0.77397233 0.5976935 -0.20911554
-46.78162 4.8150434 -9.2712011 -0.80473387 0.54968941 -0.22415385
-28.980906 4.3621159 -35.649334 -0.52732223 0.41637188 -0.74065226
-35.662243 6.0513539 -28.667702 -0.66236621 0.47960919 -0.57553989
-36.707191 3.8902192 -28.446136 -0.68354928 0.51477867 -0.51745844
-42.869652 6.6025929 -17.111658 -0.62159133 0.73023564 -0.28351378
-33.611267 6.1029291 -30.595646 -0.54139471 0.63008171 -0.55667657
-37.194241 6.4803014 -26.253996 -0.60358942 0.63859028 -0.4773702
-48.831066 2.8043249 -4.5097232 -0.92616475 0.33458221 -0.17399292
-40.691982 5.9093261 -22.307337 -0.66563851 0.57649475 -0.47389787
-46.372738 3.8632722 -11.619854 -0.80723476 0.49734274 -0.31784001
-33.111919 3.3982573 -32.876205 -0.61811352 0.37501559 -0.69086832
-34.662365 3.846307 -30.993322 -0.65172744 0.38344917 -0.65438378
-38.781296 4.7391405 -25.485968 -0.78924984 0.22244941 -0.57236433
-43.268185 5.2765388 -18.614855 -0.82423544 0.40923995 -0.39135489
-47.77084 3.5755403 -7.4660869 -0.89867586 0.39710259 -0.18625546
-47.659431 5.5412593 -4.5690279 -0.84214985 0.52882189 -0.10550342
-44.689491 3.8875484 -15.021947 -0.77050495 0.5544672 -0.31446502
-40.112766 3.8780246 -23.07412 -0.61913335 0.61135274 -0.49287093
-43.75494 3.9418392 -17.840542 -0.83645189 0.39658946 -0.37823933
-48.132126 2.972095 -8.5780315 -0.91233438 0.37480178 -0.16483206
-49.086697 3.1166337 -1.5890474 -0.91131979 0.40359497 -0.081284843
-49.800022 1.0931039 1.7767817 -0.96003723 0.27969676 0.0099179568
-28.626354 2.2082229 -36.934937 -0.52543777 0.30334264 -0.79492033
-37.322971 3.363806 -29.05913 -0.65307355 0.39150438 -0.64824331
-39.240116 3.4457331 -26.734884 -0.63956612 0.56880605 -0.51712161
-30.016006 0.23096308 -36.578613 -0.57306826 0.25177267 -0.77987397
-31.066877 2.6600504 -34.986946 -0.59250468 0.32666746 -0.73636037
-46.011703 3.32916 -15.140035 -0.82717288 0.46476504 -0.3158772
-47.169022 3.2429869 -11.905583 -0.86130005 0.43067676 -0.26959187
-47.370502 1.603332 -12.520014 -0.91759706 0.27624804 -0.28583705
-49.406582 -0.82912987 -7.1773534 -0.9506526 0.25152349 -0.18164714
-50.750317 -2.3982003 4.2127771 -0.96626848 0.25681579 0.019256093
-33.981167 0.64127052 -33.24818 -0.62185353 0.31560409 -0.71672314
-42.71032 3.2567692 -22.637381 -0.60957873 0.68814397 -0.39353728
-48.158401 1.1709735 -10.080355 -0.93340665 0.27675959 -0.22837724
-50.231628 -1.2239473 -2.3783748 -0.96007204 0.26386169 -0.09294454
-35.866848 0.79367828 -31.344671 -0.65171379 0.33431599 -0.6808098
-37.875618 1.206039 -29.029852 -0.71689743 0.27564028 -0.64037538
-40.157265 0.47055796 -26.870977 -0.74838102 0.26821294 -0.60661995
-44.38102 1.9789217 -19.587402 -0.79412627 0.34368864 -0.50123996
-50.485283 -0.86082244 1.0988034 -0.96852833 0.24843353 -0.015288562
-50.750427 -2.7267127 -0.085799322 -0.96488422 0.25718665 -0.053416546
-41.231503 3.2733338 -24.232895 -0.74916381 0.40347493 -0.52532041
-45.221779 0.56440198 -18.420507 -0.79228169 0.46777326 -0.39176238
-47.348831 0.45842886 -13.667953 -0.90884304 0.32968491 -0.25556257
-48.630737 1.5009979 -7.3268418 -0.93782735 0.30133447 -0.17227116
-35.554325 -0.52045131 -32.532978 -0.6437127 0.22281146 -0.73211265
-42.385239 -0.62686223 -24.349039 -0.80821276 0.2295492 -0.54230934
-49.085754 -0.90821624 -9.3299713 -0.95782387 0.19453485 -0.21149355
-49.646969 0.10774273 -4.2053714 -0.95206851 0.26996201 -0.14382635
-43.858196 -0.46018696 -22.029501 -0.80717719 0.33152831 -0.48841989
-45.250336 -0.49816591 -20.497484 -0.88004309 -0.0027986846 -0.47488561
-45.585602 1.1888375 -17.123388 -0.87460291 0.26216197 -0.40784907
-37.527233 -0.647802 -30.569965 -0.72226065 0.20172204 -0.66154951
-41.58596 -0.69872242 -25.640694 -0.80672407 -0.014111615 -0.59075987
-43.377434 -0.44097206 -23.651493 -0.83765292 -0.101197 -0.53674638
-49.434063 -2.2643726 -7.9038191 -0.93469191 0.23893954 -0.26317105
-48.396397 -0.86946535 -12.07586 -0.95112938 0.14266224 -0.27386194
-47.815487 -2.566071 -13.062957 -0.94088 0.10912456 -0.32068172
-48.788525 -2.5899353 -10.027479 -0.93309069 0.24763189 -0.26080689
-46.153858 -1.8885111 -17.42547 -0.85358894 -0.32503083 -0.40711296
-46.943104 -0.56221014 -16.642685 -0.90417385 0.18086118 -0.38698688
-50.310242 -4.4542222 -7.1753674 -0.9430542 0.27454239 -0.18781711
-50.383759 -2.8813598 -4.5454535 -0.95381147 0.2553969 -0.15816502
-39.975845 -0.91883713 -27.721006 -0.77520949 0.11248837 -0.62160808
-40.053661 -2.5825379 -27.107565 -0.79432106 0.20402381 -0.57221359
-47.454044 -0.63097483 -15.105255 -0.92475319 0.15474047 -0.34768817
-37.010166 -2.7488003 -31.299887 -0.69968206 0.25547487 -0.66721624
-45.240452 -2.6513145 -18.544716 -0.88533401 0.18221053 -0.42776522
-51.443687 -5.1184597 -0.57522076 -0.96006405 0.27414656 -0.055861667
-33.465584 -4.4362268 -35.509354 -0.62322503 0.27754524 -0.73113555
-41.750938 -2.6212411 -24.894854 -0.78627962 0.19198881 -0.58728594
-40.614742 -3.2661126 -27.723499 -0.70029896 0.41434169 -0.58129364
-43.938267 -2.6582782 -21.542366 -0.87502408 0.11007112 -0.47139922
-46.661625 -2.364157 -16.048681 -0.89252001 0.22462343 -0.39109126
-51.213264 -6.3638864 -5.1703324 -0.95593345 0.25278366 -0.14930381
-51.543552 -5.9147153 -2.5920711 -0.96081096 0.25503597 -0.10862304
-38.187695 -2.6313078 -29.870399 -0.74142098 0.23339029 -0.62914544
-45.420086 -3.231411 -20.559566 -0.79202586 0.44327322 -0.41976643
-42.339439 -3.3928349 -25.382694 -0.70011026 0.51534176 -0.49423534
-48.476494 -3.3748152 -13.70097 -0.86722201 0.39726049 -0.30018327
-35.755924 -5.0284562 -33.609489 -0.6570003 0.29293278 -0.69465178
-49.856865 -4.6555495 -9.8879366 -0.92089671 0.31979918 -0.222885
-41.999859 -5.1483641 -26.813488 -0.73027593 0.35307443 -0.58483803
-46.628387 -3.3737478 -17.92403 -0.83118397 0.45003596 -0.32649797
-51.152519 -7.058115 -7.1658344 -0.95340788 0.23622963 -0.18764058
-52.193451 -7.3078547 2.1400921 -0.97074282 0.23920153 -0.021000138
-38.504501 -7.0714474 -31.856188 -0.69250464 0.26969019 -0.6691072
-49.447731 -5.227056 -11.824012 -0.92576671 0.25406191 -0.28001547
-42.661896 -7.0753555 -27.25396 -0.77071118 0.093657888 -0.63026375
-43.666523 -3.3475666 -23.443485 -0.78766578 0.38844165 -0.47822139
-44.403797 -7.1309295 -25.167494 -0.82491404 0.14477718 -0.54640323
-45.699715 -5.604073 -21.042324 -0.82772148 0.31394455 -0.46509778
-48.435215 -5.508018 -15.009123 -0.87740099 0.35629171 -0.32128429
-52.104591 -8.6166897 -2.7206609 -0.95550156 0.26137593 -0.13674586
-39.728348 -5.2037497 -29.487402 -0.69678348 0.33120918 -0.63623369
-50.630451 -7.7028184 -10.097713 -0.95090592 0.20658925 -0.23043218
-40.519211 -7.0254254 -29.792555 -0.74480826 0.22686966 -0.62752753
-46.521793 -7.0335994 -21.243286 -0.87571675 0.10635884 -0.470965
-47.208534 -5.6898346 -18.358784 -0.84434259 0.36507002 -0.39218557
-49.847202 -7.3798914 -12.878171 -0.93645507 0.19722398 -0.2900942
-37.121906 -6.9315615 -33.205444 -0.6716072 0.20618622 -0.7116397
-48.100636 -7.167748 -18.060091 -0.90688509 -0.013565631 -0.42115939
-52.79829 -9.9874992 1.2874879 -0.96595061 0.25716087 -0.02842091
-49.206554 -6.9153972 -15.577597 -0.92314285 0.21502994 -0.31869942
-51.945824 -9.3209944 -5.4346657 -0.9492538 0.26437157 -0.17036726
-48.914379 -8.8483295 -15.063826 -0.92606246 0.12380055 -0.35648534
-52.683052 -11.240658 -4.7217946 -0.95077139 0.28048778 -0.1317582
-40.271713 -9.8775005 -30.650629 -0.72572684 0.24932876 -0.64121419
-51.226662 -9.3057671 -8.3376474 -0.94315171 0.25063843 -0.21827765
-46.139362 -9.2183313 -20.813423 -0.86688709 0.083667919 -0.49143311
-52.760593 -10.43795 -2.4362795 -0.9570331 0.28018957 -0.074709043
-47.157516 -8.7794943 -19.090195 -0.88923699 0.12955904 -0.43871623
-42.686157 -9.1204634 -26.703611 -0.79831994 0.17841612 -0.57519817
-45.298737 -9.7314196 -24.383911 -0.75656652 0.42231321 -0.49925813
-44.693989 -9.1907654 -23.513681 -0.84452927 0.22213158 -0.4872658
-48.164692 -10.056383 -19.099781 -0.82560229 0.43177614 -0.36324945
-48.032181 -8.968854 -17.096243 -0.87095189 0.31496078 -0.37715033
-50.54393 -10.196809 -12.111854 -0.92525721 0.28239006 -0.25328812
-57.539654 -34.981701 17.466822 -0.97483575 0.025456544 0.22146614
-53.248669 -11.323853 3.9137917 -0.95894432 0.28358844 -0.0018473832
-38.222454 -9.344903 -32.481552 -0.69668728 0.21956137 -0.68294919
-43.179554 -10.277278 -27.487768 -0.74159056 0.36419585 -0.56338686
-50.183685 -10.33532 -14.147419 -0.89158702 0.36811686 -0.26374698
-49.108185 -12.255637 -18.326586 -0.87257951 0.29420251 -0.38993588
-49.68856 -10.279721 -16.000946 -0.86046207 0.3795802 -0.33988792
-51.829777 -11.136383 -8.912056 -0.91917205 0.31611359 -0.23493581
-53.569332 -12.734302 0.91054547 -0.96001381 0.27839562 -0.02948417
-54.010262 -13.929708 4.7189088 -0.96509224 0.2618587 0.0052019078
-38.178745 -11.945097 -33.851929 -0.67256647 0.2952393 -0.67859274
-41.265926 -8.9066401 -28.685717 -0.78177434 0.19583553 -0.59201115
-47.025002 -9.6473913 -21.239498 -0.79351789 0.43758672 -0.42290336
-52.713406 -13.169422 -7.6752443 -0.94713277 0.24853878 -0.20289931
-41.706326 -12.010186 -30.03809 -0.70326322 0.32840374 -0.63053304
-44.890995 -12.431393 -25.761345 -0.7869271 0.34834331 -0.50931585
-50.286766 -12.422325 -15.471892 -0.90632904 0.24370016 -0.3452217
-54.106487 -14.537939 1.6154917 -0.96935374 0.24403483 -0.028288942
-52.837288 -12.376825 -6.0765495 -0.94537032 0.27614185 -0.17326473
-53.627083 -13.161377 -1.6937965 -0.9638893 0.25456533 -0.078190513
-45.447506 -10.782393 -24.211245 -0.80297667 0.26317078 -0.53476125
-50.914196 -13.803186 -15.270516 -0.91691977 0.21343412 -0.33720019
-40.436188 -13.191543 -32.11969 -0.71437442 0.25388813 -0.65208131
-46.756851 -12.028132 -22.761192 -0.82816523 0.32073012 -0.45964617
-46.876675 -13.539886 -23.888792 -0.82307661 0.2345603 -0.5172295
-51.907387 -13.551502 -12.246892 -0.93373126 0.25910109 -0.24700689
-42.595764 -14.013302 -29.817142 -0.75829244 0.17765729 -0.62724042
-43.408657 -13.341089 -29.047758 -0.76926458 0.23166825 -0.59545106
-45.955181 -13.432419 -25.787127 -0.8199662 0.18022124 -0.54330069
-48.616302 -13.463458 -21.26211 -0.86622047 0.25256401 -0.43113059
-49.7379 -14.03149 -18.308661 -0.90835649 0.14336702 -0.3928543
-51.662556 -14.829268 -12.74518 -0.94358438 0.16120119 -0.28924516
-53.985905 -15.4139 -3.4466689 -0.96185547 0.24772485 -0.11604497
-54.383327 -16.002338 0.19430751 -0.96594536 0.25351417 -0.051770601
-39.707596 -14.414094 -33.153099 -0.71280348 0.22579665 -0.66402346
-50.370949 -15.871342 -17.253252 -0.90288174 0.2018588 -0.37954918
-46.187618 -14.603147 -24.753464 -0.84334522 0.11589513 -0.52472579
-43.386768 -14.519829 -28.597395 -0.81045735 0.12074139 -0.57321924
-44.805889 -14.609883 -26.817976 -0.80404496 0.078943111 -0.58930433
-47.730629 -14.685575 -22.185175 -0.86480415 0.093606427 -0.4933067
-54.968315 -18.508389 -1.6934561 -0.9614867 0.26311439 -0.079461493
-55.143242 -18.243586 1.8293173 -0.96069974 0.27480012 -0.03925607
-48.653858 -16.291937 -21.375683 -0.86823255 0.22516143 -0.44212511
-41.788006 -15.009115 -30.966541 -0.73949713 0.22227848 -0.63540244
-47.581844 -17.808516 -24.045858 -0.83056176 0.24784704 -0.49873728
-52.97366 -17.231112 -10.746246 -0.92577052 0.24545839 -0.28757465
-42.224232 -17.579227 -31.697287 -0.75196344 0.25502196 -0.60787725
-51.75182 -16.531626 -14.176227 -0.92414242 0.22817957 -0.30642277
-43.7873 -17.459549 -29.379908 -0.78190607 0.2542769 -0.56918019
-55.616444 -20.269089 1.2896632 -0.965105 0.25728166 -0.048771862
-53.95348 -17.088467 -6.1681299 -0.95402479 0.24367899 -0.17451973
-55.705177 -20.116188 3.8048241 -0.96538424 0.26078123 0.0051402044
-37.692001 -18.497416 -36.692818 -0.65998453 0.24710703 -0.7094776
-52.291695 -19.328249 -14.669285 -0.91981393 0.23799068 -0.31193396
-53.755928 -18.765385 -9.4365053 -0.93984097 0.25186443 -0.23078831
-54.625313 -20.391146 -7.4360824 -0.95054644 0.25519356 -0.1770245
-54.685616 -18.493544 -4.2495551 -0.95807332 0.25136209 -0.13752335
-55.764858 -21.166224 -1.227295 -0.96274883 0.25823435 -0.080185778
-39.092438 -17.000534 -34.722713 -0.70498753 0.24101302 -0.66701227
-52.511726 -18.11866 -12.954801 -0.92316216 0.25706232 -0.28581563
-45.968922 -16.772615 -26.024887 -0.79759896 0.25393191 -0.54713303
-49.752945 -18.183626 -20.214876 -0.88018608 0.25772479 -0.39856046
-55.345913 -20.854921 -3.91698 -0.9566102 0.25342149 -0.14378615
-56.326847 -22.887007 1.4776528 -0.96731406 0.25196943 -0.028545046
-54.340065 -20.97242 -9.2984791 -0.94371718 0.24366441 -0.22366363
-39.86792 -19.802349 -34.984959 -0.69472587 0.25267395 -0.67343283
-49.811523 -20.532084 -21.522738 -0.85982072 0.24622831 -0.44730306
-51.413609 -19.103764 -17.105913 -0.90348214 0.25748295 -0.34266976
-47.271812 -21.070782 -26.219957 -0.81367135 0.2480177 -0.5257625
-48.439861 -21.24601 -24.176199 -0.83807623 0.24939249 -0.48521283
-56.11908 -23.76037 -3.8104992 -0.95722109 0.25428244 -0.13808712
-45.605705 -19.369465 -27.910471 -0.78814209 0.26507384 -0.55548894
-54.813583 -23.471323 -10.009133 -0.93768156 0.25070232 -0.24062784
-57.025494 -25.65127 0.51567197 -0.96667045 0.25313675 -0.038340468
-45.288105 -21.473204 -29.184042 -0.78127301 0.23230043 -0.5793522
-43.454185 -21.667202 -31.633745 -0.75097203 0.25474498 -0.60921758
-51.476147 -20.807421 -18.034039 -0.88802195 0.24974556 -0.38606229
-53.886627 -21.434601 -11.770639 -0.9274078 0.24600448 -0.28177395
-55.820835 -24.650839 -7.2034645 -0.94787955 0.25619051 -0.18944849
-56.721569 -24.203482 4.2400842 -0.96688884 0.25504375 0.0088726059
-53.265862 -23.669102 -15.54839 -0.91475463 0.26078546 -0.3085694
-53.00444 -21.534235 -14.178854 -0.91982025 0.25303972 -0.29983595
-40.389622 -23.595293 -35.860985 -0.69122428 0.2502178 -0.67793816
-42.328854 -24.944565 -34.285557 -0.71748179 0.25733706 -0.64730018
-52.048607 -23.479551 -18.504139 -0.88884073 0.25899231 -0.37800142
-57.488842 -27.269516 4.8081465 -0.96593219 0.25813168 0.01851763
-49.574196 -24.31192 -23.951525 -0.84083867 0.25449583 -0.47772622
-56.694946 -26.454615 -4.8541107 -0.95597005 0.25638133 -0.14279327
-45.537762 -23.054863 -29.499443 -0.77679741 0.25349745 -0.57647616
-48.316116 -25.06171 -26.452888 -0.82348156 0.24492094 -0.51175356
-56.775375 -25.110352 -1.3708675 -0.96562421 0.24839616 -0.076611102
-54.412189 -24.675219 -12.536098 -0.92525995 0.25802135 -0.27806312
-57.238552 -27.234077 -2.1599226 -0.96392232 0.24921128 -0.093527272
-47.046234 -24.835642 -28.256609 -0.79277003 0.24762097 -0.55695558
-47.610664 -27.172173 -28.326933 -0.81089544 0.25127158 -0.52849901
-43.569344 -26.3001 -33.519199 -0.73678666 0.2524232 -0.62723833
-41.313099 -26.743639 -36.079967 -0.68872881 0.25868267 -0.67730039
-50.860588 -23.744408 -21.157282 -0.8648454 0.2549921 -0.43245986
-53.975037 -26.849287 -15.968408 -0.91252029 0.25103959 -0.3229332
-45.266899 -25.552488 -30.970577 -0.76998675 0.25180635 -0.58627111
-50.80415 -26.36866 -22.839649 -0.84995502 0.25547105 -0.46077231
-55.624424 -26.349052 -10.158968 -0.93328851 0.2640039 -0.24346347
-57.765957 -28.365414 1.591339 -0.96770751 0.24924831 -0.037648369
-44.101437 -28.773951 -33.755913 -0.75400245 0.23872116 -0.61195785
-46.758232 -27.664158 -29.945656 -0.77448964 0.25287625 -0.5798443
-49.392109 -27.75359 -26.00202 -0.82239944 0.25246698 -0.50982314
-55.101532 -27.800831 -13.328259 -0.92147112 0.26161581 -0.28713781
-57.727249 -29.875469 -4.2362823 -0.95439261 0.25786629 -0.15046495
-52.381027 -27.02186 -20.160446 -0.87586182 0.24107122 -0.41803196
-56.259087 -28.62554 -10.083787 -0.93890613 0.25233367 -0.2340578
-57.848511 -29.527279 -2.0941169 -0.9622578 0.26128531 -0.076091513
-53.634804 -28.10017 -17.96299 -0.9034431 0.24497996 -0.3518171
-56.598465 -28.11727 -7.8526287 -0.95057124 0.24968079 -0.18459086
-58.421757 -30.73649 2.621717 -0.96199602 0.2718817 -0.025375688
-45.696323 -29.779995 -32.136871 -0.75265419 0.2530565 -0.60784376
-54.580868 -29.269609 -16.029646 -0.91403389 0.2446596 -0.32354859
-56.893688 -30.403162 -9.1452284 -0.9461934 0.2582711 -0.19497211
-59.052357 -32.771568 4.0357647 -0.97949904 0.20028244 0.021646392
-51.281498 -28.94264 -23.363714 -0.86241412 0.25909063 -0.43487245
-56.287045 -30.160782 -11.627339 -0.93296373 0.26790673 -0.24042624
-58.231308 -31.173796 -3.217804 -0.9631846 0.24602056 -0.10839406
-47.658432 -30.372364 -30.010191 -0.79546356 0.24816315 -0.55285865
-53.841099 -29.839128 -18.368958 -0.89035821 0.23855902 -0.38775226
-59.238907 -33.606152 1.7077358 -0.98357576 0.1763382 -0.03851651
-56.798817 -32.813744 -12.483979 -0.93305767 0.20299576 -0.29697829
-58.699039 -32.559849 -1.6936995 -0.97462863 0.20669639 -0.085881226
-43.593079 -31.108051 -35.309948 -0.73109335 0.23974103 -0.63876975
-46.435184 -31.703808 -32.06237 -0.76032352 0.25901708 -0.59566629
-49.872505 -31.31398 -26.938219 -0.81042141 0.2509031 -0.52940047
-57.614227 -33.172119 -9.7985382 -0.95550138 0.20448001 -0.21261476
-58.207836 -32.026314 -4.573194 -0.9656378 0.21060929 -0.15227416
-59.272808 -35.191349 2.3817232 -0.99979931 0.019584168 -0.004228028
-53.285545 -31.175274 -20.52689 -0.89190161 0.22300938 -0.39341885
-58.040401 -32.477615 -6.3925953 -0.95893502 0.22866036 -0.16780347
-48.093651 -32.795498 -30.236105 -0.78674656 0.24654339 -0.56590295
-49.17588 -32.595314 -28.541801 -0.81510961 0.21701743 -0.53712189
-52.80574 -32.519615 -22.710619 -0.88965464 0.19566569 -0.41258901
-55.323273 -31.349016 -15.701563 -0.91159678 0.25921464 -0.31905955
-58.155914 -33.738754 -7.4284039 -0.96858245 0.18391937 -0.16739684
-54.704575 -31.878262 -17.838495 -0.90048063 0.22354828 -0.37304258
-55.776218 -33.175228 -15.711671 -0.93524957 0.14689152 -0.32207322
-59.095478 -35.183949 -2.4490407 -0.97846478 0.17199218 -0.11412849
-59.180225 -35.204815 -0.28168789 -0.99191546 0.10374957 -0.073074207
-51.390606 -31.611258 -24.775246 -0.83747703 0.23215014 -0.49471056
-58.746544 -35.108749 -4.4899726 -0.97899365 0.14293513 -0.14539894
-41.832264 -32.699142 -37.663795 -0.69723332 0.21852915 -0.68272305
-57.448631 -35.17355 -11.430809 -0.9555676 0.10674063 -0.27476722
-58.068787 -35.083225 -8.2863302 -0.97936285 0.065563135 -0.19118026
-40.731598 -33.959927 -39.212139 -0.69725204 0.24938218 -0.67204762
0.17668061 2.4501512 -46.466919 0.0062213861 0.01959995 -0.99978852
-44.154392 -33.933937 -35.562889 -0.7149511 0.20192808 -0.66938031
-55.148426 -34.362835 -17.918894 -0.90725917 0.14788364 -0.39371467
-35.839737 -35.421688 49.818554 -0.59783041 -0.082060017 0.79741138
-50.551941 -34.074657 -27.157763 -0.8264308 0.21821415 -0.51903254
-51.805298 -34.62899 -25.147013 -0.86815858 0.17644599 -0.46386167
-56.388645 -35.019516 -14.208171 -0.94362217 0.077301875 -0.32187191
-52.206024 -34.197624 -24.108772 -0.88272226 0.098501593 -0.45945498
-53.728638 -34.688793 -20.916641 -0.90978068 0.12532918 -0.39571682
5.3999848 -35.07518 60.78249 0.053419296 0.090496294 0.99446309
9.5348272 -35.90596 60.29776 0.18228211 0.018660055 0.98306918
13.907246 8.1573906 45.145298 0.15333503 0.92019844 0.36017111
1.7039224 8.0658388 47.729763 0.043357536 0.8601225 0.50824147
15.6333 7.3722692 46.03825 0.22066827 0.80392975 0.55227023
22.481148 7.3667636 42.746452 0.26507989 0.8379277 0.47708476
9.5956736 6.5417113 48.754162 0.15275751 0.74791956 0.64597327
3.7331078 7.2190099 48.718426 0.033051468 0.81400585 0.57991558
-12.653883 6.8766584 47.831364 -0.15588449 0.76183683 0.62873256
-8.3459091 8.0343409 47.214474 -0.099129595 0.85891867 0.50242621
6.158884 7.6243324 48.194656 0.072741412 0.80915397 0.58307683
13.089966 7.0784311 47.042835 0.19746114 0.75338298 0.62723458
-0.9786759 7.1798005 49.176266 0.0053001088 0.80952245 0.58706504
-10.495217 5.3467541 49.917957 -0.19983336 0.53156543 0.82310677
-0.34388563 5.6322174 50.795723 0.032096535 0.66336662 0.74760592
19.192131 4.7269845 47.194454 0.33379629 0.50466681 0.79617298
-14.749908 5.9589796 48.246769 -0.24490984 0.60836476 0.75492489
-6.2368803 6.5743418 49.470123 -0.083640672 0.76160163 0.64262527
-4.1996865 6.9083786 49.25209 -0.054433215 0.77734315 0.62671733
14.004249 5.3654757 48.692844 0.23517993 0.64237684 0.72941232
1.8698251 5.972805 50.211109 0.059619967 0.74241507 0.66728199
-17.316339 5.4072847 47.776272 -0.29695359 0.5918811 0.74932986
-8.5733433 5.5382457 50.209682 -0.14034542 0.66536981 0.73320264
3.8604894 5.6876693 50.353058 0.089938492 0.63029361 0.77112973
-15.340716 3.6471441 49.371296 -0.27803308 0.42659423 0.8606481
-2.5500486 5.4333272 50.974468 -0.06161198 0.53975421 0.8395651
2.1834857 4.8915696 51.248524 0.1031355 0.46435633 0.87962282
7.3907857 5.3517308 50.296776 0.095345251 0.56444353 0.81994683
10.102287 5.083847 49.992062 0.19956508 0.49387446 0.84632254
14.146696 3.8617587 49.417828 0.26487842 0.44598389 0.85494906
-5.4707804 4.987812 51.054653 -0.069867201 0.47830173 0.87541193
-25.716314 1.6399416 45.528419 -0.47481504 0.32362112 0.81842536
-22.885464 1.2685901 47.239861 -0.42781854 0.31261584 0.84808177
-12.925152 2.985641 50.448917 -0.27275842 0.40977654 0.87045163
4.3204756 4.3834891 51.266846 0.11587478 0.27193093 0.95531493
-29.90085 -1.3879985 43.803539 -0.56200528 0.24577083 0.78977638
-16.093565 2.1924636 49.853027 -0.32116869 0.29215327 0.9008314
6.507638 3.2083223 51.186466 0.082020767 0.46547186 0.88125396
-18.83927 2.0638449 48.876495 -0.35284042 0.35688207 0.86495018
-8.9075432 3.5008082 50.906734 -0.12354002 0.43024859 0.8942169
4.702229 2.8170941 51.242817 0.044379577 0.71385509 0.69888586
16.595142 2.7341809 49.230324 0.34106052 0.38002062 0.8598035
22.31691 0.95698684 47.233673 0.44686291 0.26600373 0.85414022
-27.847357 -0.28860122 44.899075 -0.52731061 0.25954142 0.8090623
-5.6331525 2.9267311 51.853977 -0.11379528 0.45942935 0.88089466
2.8404143 3.3465376 51.227234 0.16281447 0.4507024 0.87770087
2.433387 2.4294996 52.977268 0.038107295 0.50645733 0.86142254
11.582463 2.7857792 50.643238 0.24084641 0.41299769 0.87830859
19.532354 2.3739204 48.123753 0.37532586 0.33722135 0.86337256
-21.187786 0.38727066 48.310425 -0.40720659 0.26196495 0.87496126
-2.6072359 2.6721699 52.139267 -0.05197373 0.67127323 0.73938549
8.5392342 2.9480879 51.178265 0.13851985 0.44441354 0.88504744
-23.642012 -1.5899997 47.613224 -0.42303333 0.22559568 0.87758154
-6.7357292 0.87101281 52.652115 -0.11005826 0.37727448 0.91953862
18.354053 0.15118891 49.317417 0.37018296 0.24223179 0.8968212
6.4523211 2.6258645 52.136089 0.18396966 0.47541565 0.86031109
16.47542 0.31664121 49.944645 0.34214091 0.21974307 0.91359323
-25.822351 -1.4218836 46.57132 -0.48542818 0.24501874 0.83924085
-14.539755 0.72095066 50.78701 -0.28979352 0.28586122 0.9134019
-9.965991 2.4809372 51.634899 -0.1766305 0.37754315 0.90898997
-3.9828095 2.0145063 52.997318 -0.073353909 0.32653314 0.94233501
8.3968401 -0.2683543 52.416737 0.20918971 0.25218096 0.94479865
9.8877363 2.3689618 51.703136 0.21147686 0.33468807 0.9182927
14.55461 1.6778433 50.457134 0.27198747 0.31265098 0.91009462
-17.41148 -1.5998944 50.444435 -0.34515807 0.22381297 0.91146791
4.9289422 0.60649782 52.833492 0.12348954 0.26739553 0.95564115
-19.287386 -0.28058031 49.271194 -0.37340456 0.22716117 0.89942586
-11.360703 1.2558728 51.509659 -0.25769386 0.29012489 0.92164057
10.637007 0.27376735 51.778503 0.24231417 0.22262518 0.94431025
13.576077 -0.25394204 51.084324 0.29894212 0.2448853 0.92231488
-26.492832 -4.678823 47.009678 -0.48249993 0.24322051 0.84144974
-13.414837 -0.73210019 51.624569 -0.28798154 0.1929923 0.93798757
-4.7848105 0.062676787 52.928551 -0.11429264 0.31955138 0.94065094
-11.666124 -1.5423099 52.336338 -0.24841967 0.14636411 0.9575308
-19.658051 -3.251394 49.813553 -0.37511984 0.24840513 0.89307332
-16.786755 -3.4435699 51.003681 -0.31274769 0.24024564 0.91895092
-2.8276949 0.21846896 52.947163 -0.024974659 0.28889355 0.95703536
10.356835 -1.8386345 52.574722 0.20620811 0.16667911 0.96420765
-11.134805 -2.9588048 52.349987 -0.2346919 0.21269335 0.94851524
-9.0529604 -1.2746823 52.826908 -0.229137 0.20600654 0.95134515
-13.493609 -2.8937438 51.677456 -0.26348278 0.19078937 0.94560897
2.164861 -1.569957 54.055786 0.11417453 0.0105718 0.99340451
6.9636769 -1.4023598 53.549885 0.23322463 0.14373934 0.96174073
-21.962397 -6.0715413 49.723347 -0.39978379 0.26454234 0.87760484
-9.3677549 -3.5988557 52.92226 -0.17670619 0.25881457 0.94962621
-7.0626464 -1.3330197 53.409927 -0.12297518 0.10605871 0.98672622
0.20545326 -1.9346439 54.010281 -0.025014905 0.041282188 0.99883437
10.067923 -3.9236958 52.840054 0.21538804 0.32650024 0.92032909
-23.992054 -4.5844865 48.258663 -0.43118462 0.25616324 0.86513591
-6.604341 -3.4500782 53.063423 -0.081023209 0.15080883 0.985237
-1.5395397 -3.5711458 53.243984 0.0078260554 0.11561751 0.99326307
1.0770732 -4.2127051 54.345013 0.034104537 0.48129889 0.87589282
2.1166723 -3.3391376 53.176701 0.097346492 0.071970358 0.99264491
-2.6056814 -3.8550735 53.675789 -0.064029604 0.39178023 0.91782814
7.5405364 -3.2796736 52.786087 0.14848061 0.14854079 0.97769582
11.21847 -3.4199116 52.135639 0.24265078 0.20936885 0.94725144
-29.863485 -8.601862 46.113918 -0.52875555 0.24918671 0.81137145
-27.41925 -6.7831578 47.064705 -0.50201869 0.25471094 0.82649839
-20.344873 -6.0076761 50.404984 -0.39150611 0.27221093 0.87899047
-5.6811137 -4.1790409 53.86871 -0.10092361 0.3966046 0.91242492
4.5482545 -3.7176433 53.002193 0.05161969 0.54632741 0.83597952
-25.594891 -8.4328251 48.57975 -0.46417728 0.2476816 0.85040766
6.2705951 -4.2979884 53.770023 0.12176368 0.45086917 0.88424575
-14.638096 -4.6058049 52.229336 -0.27723169 0.31114641 0.90902722
-11.300421 -4.2666969 52.922112 -0.20505969 0.29872027 0.93204969
-15.998376 -7.0319762 52.317387 -0.31096894 0.20307779 0.92847067
12.358836 -6.1774817 53.020889 0.27119121 0.26560619 0.92515332
-14.340223 -6.646801 52.756618 -0.28162616 0.25345525 0.9254443
-0.32966727 -7.5819473 55.479824 -0.013748528 0.2606509 0.96533525
5.2583609 -6.2165976 54.415833 0.099508651 0.32385004 0.94086093
9.3717051 -6.5439916 53.948387 0.19151571 0.34209681 0.91994107
-23.841866 -7.3418794 49.202557 -0.43579549 0.25618428 0.86281627
-22.869827 -8.6914263 50.021744 -0.41229132 0.25860068 0.87357968
-18.336355 -6.0109143 51.269051 -0.34453598 0.25614518 0.90315259
-4.4821744 -6.0723772 54.514732 -0.081248514 0.35440895 0.93155408
1.6459191 -6.4529982 54.818882 0.10861743 0.29518601 0.94924575
-19.823502 -9.5262661 51.566185 -0.3455472 0.23676729 0.908041
-11.21462 -6.6264086 53.63533 -0.21479166 0.29988143 0.92948145
-24.024597 -11.164239 50.215244 -0.42145035 0.23939642 0.87468219
-9.0879326 -7.1746345 54.354008 -0.16829731 0.26327726 0.94992691
-21.50996 -9.3189907 50.911839 -0.38471004 0.24087684 0.89105362
-13.143688 -8.1133671 53.706402 -0.28044891 0.17854433 0.94311732
-2.3918731 -7.8888679 55.482941 -0.067849316 0.10972426 0.99164361
6.8109498 -7.8424535 55.084339 0.12918752 0.13485777 0.98240727
9.2298393 -8.0578547 54.528423 0.26315838 0.032190833 0.9642154
-18.682621 -10.812566 52.372234 -0.31608516 0.26474413 0.91104376
-6.8120708 -8.3388157 54.958466 -0.14377503 0.049750302 0.98835909
-11.104079 -8.4341326 54.113182 -0.17545882 0.14012142 0.97446412
2.1719899 -9.5651827 54.896427 -0.015623912 0.075752497 0.99700421
-15.49525 -9.0599918 52.89341 -0.30697209 0.23642482 0.92188472
3.1014528 -8.0828247 55.31686 0.068968721 0.094432905 0.99313927
9.5363016 -9.9184332 54.188763 0.15873371 0.28967679 0.94387031
-6.6375628 -10.002679 54.656063 -0.037824254 0.34411281 0.93816614
-21.160116 -14.070758 52.400024 -0.35944909 0.25562608 0.89746952
-13.934281 -10.949595 54.053909 -0.23714522 0.28484437 0.92877656
-11.578975 -10.229316 54.202034 -0.20731096 0.22429596 0.95221502
-9.430109 -9.6670427 54.437546 -0.17758872 0.21645649 0.96000463
-0.7594099 -10.043936 54.850655 0.075376421 0.22798875 0.97074169
-0.069657877 -10.61111 55.789078 0.021631533 0.42117348 0.90672207
6.6582332 -9.9715481 54.513996 0.15730822 0.05331343 0.9861095
6.5294127 -36.030659 60.975182 0.13729544 0.10889247 0.98452652
-16.177113 -12.409976 53.69677 -0.31350124 0.25674585 0.91422021
9.893054 -11.270047 54.993107 0.21717817 0.30355987 0.92773116
12.116533 -10.930433 54.272579 0.25807315 0.31333369 0.91390389
-22.73354 -12.72115 51.237877 -0.41025126 0.2710157 0.87077236
-7.3829823 -10.936562 55.497559 -0.12345313 0.40382478 0.90646827
3.3777735 -10.446783 55.406986 0.091546193 0.32697275 0.94058925
-25.687136 -13.267776 49.931614 -0.4526315 0.25400934 0.85475379
-22.226456 -14.077775 51.922432 -0.39246774 0.23628615 0.888897
-18.651226 -12.82814 52.891911 -0.3189148 0.25438052 0.91300821
9.3971672 -12.890018 55.427738 0.22448204 0.28551567 0.93171269
-27.498501 -16.134138 49.740067 -0.46173352 0.24415983 0.85275322
3.4834642 -12.507965 56.190132 0.072254777 0.32729772 0.94215465
6.4214191 -11.30668 55.504398 0.11750409 0.39457804 0.91131824
-24.828608 -15.735812 51.222908 -0.4409467 0.24913655 0.86226267
-23.369957 -16.475574 51.954884 -0.40707159 0.23960499 0.88140923
-4.1473966 -11.514989 55.980251 -0.079503857 0.39510775 0.91518795
-7.6223683 -12.988583 55.852139 -0.19864032 0.28751132 0.93695211
-14.231349 -13.644675 54.622189 -0.24853484 0.26178473 0.93257666
1.4830225 -13.416472 56.510609 0.046238393 0.29207164 0.95527804
-15.792945 -16.158436 54.850723 -0.29982078 0.23347765 0.9249841
-1.0610348 -12.98258 56.573788 0.0031402141 0.32371184 0.94615048
-0.44714817 -14.236428 57.058952 0.035174746 0.12331263 0.99174428
7.7544365 -14.423175 56.46468 0.16187479 0.22594443 0.9605965
-26.215403 -18.76725 51.287292 -0.44185051 0.25549558 0.85993618
-8.945734 -15.41826 56.150665 -0.17604429 0.19337834 0.96520114
-7.7229576 -14.485239 56.557423 -0.2395311 0.10133061 0.9655863
-5.404891 -14.512136 56.933945 -0.12087765 0.24378505 0.9622668
3.4721687 -14.362311 56.899525 0.065643221 0.14062445 0.98788452
-18.458967 -16.276489 53.984268 -0.32306027 0.25471902 0.91145509
-2.7704475 -14.609996 57.061428 -0.03575968 0.13717777 0.98990077
10.035225 -15.002517 55.938461 0.23012111 0.17185684 0.95786715
-30.277927 -20.052647 49.391636 -0.52235055 0.25797054 0.81277376
-23.822912 -18.942919 52.572651 -0.41785842 0.25764427 0.87121403
-21.596102 -16.856489 52.955902 -0.37795329 0.24899013 0.89171469
-20.442604 -18.040783 53.721085 -0.34195301 0.23678628 0.90939558
-5.4743471 -15.663695 56.665726 -0.091693215 0.10549656 0.99018323
2.1789317 -15.058703 56.871655 0.087539732 0.069509588 0.99373293
5.268014 -14.293099 56.566704 0.099405281 0.15533409 0.98284787
4.5664139 -15.902104 56.479099 0.10310667 0.14494726 0.98405248
-18.346561 -18.535908 54.625359 -0.29490769 0.22337325 0.92904997
-11.492415 -17.1213 56.086437 -0.17080867 0.22579964 0.95908231
7.8441052 -15.491828 56.18277 0.10056991 0.097621568 0.99012911
-22.093578 -19.719402 53.523201 -0.36672381 0.22132893 0.90361893
1.2483716 -16.121237 57.012375 0.046878573 0.15194079 0.98727721
-30.903046 -22.951582 49.848103 -0.52812964 0.24527928 0.81296808
-19.780096 -19.902842 54.423801 -0.33692178 0.22016445 0.91542959
-1.7433619 -15.87269 56.837662 -0.034857128 0.13048041 0.99083793
-24.791475 -21.044146 52.644947 -0.41266239 0.24350822 0.87773204
6.1455383 -17.606506 56.960957 0.11176907 0.23188399 0.96630102
2.5627961 -18.455364 57.457462 0.090473577 0.25008413 0.96398783
-16.381342 -18.690172 55.12291 -0.27925918 0.22643016 0.93313652
-13.961666 -18.244911 55.864735 -0.25238889 0.21830674 0.94267815
-11.075746 -19.676424 56.872147 -0.19183072 0.23084427 0.95389307
-8.0476151 -18.506987 57.024406 -0.13336176 0.23455352 0.96291184
-0.16008948 -18.590757 57.595932 -0.027837377 0.23800789 0.97086424
8.3176918 -19.155489 56.845345 0.13688467 0.23427273 0.96248573
9.9580154 -17.461494 56.304691 0.19079936 0.19965278 0.96111107
-27.101078 -22.895527 52.038876 -0.44223878 0.24789892 0.86195767
-17.768892 -20.632496 55.326942 -0.29697549 0.22428386 0.92817152
4.9062548 -19.583521 57.474239 0.10432024 0.22379147 0.96903801
-15.163542 -20.668169 56.122105 -0.26430297 0.23267895 0.93595105
-6.1335373 -18.273363 57.174881 -0.091772333 0.22279045 0.97053719
-2.9580865 -20.707111 57.915466 -0.03988662 0.22938818 0.97251737
-22.681948 -22.09515 53.824551 -0.3682397 0.23358433 0.89990985
-3.5886173 -18.818037 57.545853 -0.049394019 0.22562324 0.97296172
-20.574066 -24.18186 55.292519 -0.33553293 0.25002998 0.90824151
-0.67480218 -21.921228 58.334145 -0.0509324 0.23494893 0.97067237
-28.597933 -24.232426 51.55233 -0.47893038 0.24249698 0.84369487
-20.113153 -21.812166 54.75803 -0.32482213 0.22868593 0.9177109
-12.499618 -21.882992 57.018524 -0.20820026 0.21459159 0.95425528
-9.7773838 -21.135132 57.419544 -0.15085247 0.20823266 0.96637607
-22.16362 -24.505556 54.628368 -0.36226496 0.24320412 0.89978659
-14.751304 -22.855186 56.813625 -0.24730062 0.20438536 0.9471373
1.1809691 -20.475998 58.191708 0.047023162 0.22957763 0.97215378
-31.053116 -26.153311 50.821289 -0.50711024 0.25087222 0.82456189
-17.124411 -24.37549 56.348839 -0.28403702 0.22847198 0.93119472
-11.501234 -24.1458 57.791134 -0.18608321 0.23383433 0.95430321
-4.6180272 -21.962759 58.150177 -0.074246317 0.24997576 0.96540129
9.9583645 -20.922125 57.147526 0.18119426 0.24878561 0.95145911
-25.319962 -24.097586 53.329994 -0.39210519 0.2514593 0.88488519
-6.7600121 -22.646923 58.161915 -0.12448605 0.2382527 0.96319205
7.5069017 -22.088531 57.875641 0.12669322 0.25467631 0.95869118
-9.1072197 -23.379835 57.894917 -0.14559534 0.22205216 0.9641031
3.3484237 -21.547808 58.03392 0.10966198 0.22489889 0.9681915
5.9984932 -22.931311 58.170509 0.096516363 0.22183956 0.97029465
-27.341349 -25.998919 52.838287 -0.45894426 0.25010842 0.85253495
-3.3164942 -22.804529 58.527153 -0.034033295 0.25634134 0.96598691
-24.82712 -26.119465 54.095985 -0.3803187 0.24709515 0.89123601
-22.744394 -27.45368 55.231537 -0.34909317 0.25423247 0.90194219
-2.7249818 -25.129398 59.06065 -0.029459475 0.22173612 0.97466159
3.6680076 -24.155809 58.712658 0.082740374 0.24358532 0.96634376
9.4878321 -24.070414 58.030651 0.15031886 0.21066748 0.96593142
11.070138 -23.152479 57.472359 0.2360743 0.2366101 0.94248855
-19.154989 -26.077721 56.282452 -0.30103427 0.23564281 0.9240405
-6.0087743 -24.442219 58.839664 -0.10447477 0.21559389 0.97087812
-16.476599 -26.732325 57.159775 -0.25651893 0.25974193 0.93098456
-14.629126 -25.068565 57.211216 -0.24584764 0.22903925 0.94185984
0.74526465 -23.862942 58.876579 0.031484652 0.20480599 0.97829604
-30.250538 -27.912146 51.760529 -0.48998427 0.24134102 0.83765745
-4.8346448 -26.562136 59.324524 -0.059572089 0.17360426 0.98301214
9.5311022 -27.096457 58.640362 0.15222526 0.23687679 0.95953995
-13.393481 -27.344791 58.232513 -0.22651879 0.24574123 0.94249696
-8.2522364 -24.860664 58.507931 -0.16889547 0.23791967 0.9564876
-0.36067078 -26.136944 59.250629 0.026197094 0.2436119 0.9695189
3.009984 -25.795179 59.12291 0.050084677 0.22043455 0.97411501
-20.494867 -28.04126 56.224228 -0.31453106 0.25904262 0.91321796
-10.370219 -26.601982 58.525658 -0.14955743 0.21069194 0.96604425
5.1720495 -25.321438 58.857826 0.11508007 0.22623837 0.96725011
-8.6314898 -27.117537 58.878963 -0.13669448 0.21967475 0.96594906
7.2150798 -26.536356 58.804951 0.12882367 0.22872683 0.96492928
-37.716228 -35.368744 48.430813 -0.61889809 -0.023758527 0.78511184
-27.277864 -32.22459 54.713032 -0.44769856 0.23285228 0.86333412
-24.444298 -28.479952 54.896656 -0.38608974 0.26022565 0.8849957
-22.308155 -29.87281 56.235817 -0.33201036 0.25076905 0.90933162
-6.0353112 -28.658165 59.483234 -0.085896194 0.24748899 0.96507567
-29.494247 -32.573833 53.582993 -0.46476105 0.24054295 0.85213631
-30.166744 -30.518847 52.56551 -0.48814905 0.26639 0.83111185
-26.103786 -31.33658 54.981632 -0.40289748 0.26186818 0.87698269
4.7807951 -27.877779 59.494919 0.10250688 0.25491628 0.96151441
-17.68668 -29.082695 57.482529 -0.27820593 0.24624504 0.92842066
-1.2700691 -27.522863 59.83976 -0.035907961 0.24784137 0.968135
1.2251178 -27.56086 59.675583 0.056057665 0.27148452 0.96080887
11.020635 -29.487587 59.040066 0.17746268 0.25472599 0.95059019
-32.355286 -33.067268 52.181644 -0.50533694 0.15795673 0.84834206
-15.591908 -30.370584 58.409832 -0.27013361 0.24337104 0.93155694
-34.042469 -33.536419 51.23661 -0.55173576 0.1716034 0.81617397
-24.511477 -32.46217 56.038738 -0.36910143 0.18925469 0.90991586
-19.56469 -31.433506 57.56028 -0.30834731 0.23248902 0.92242658
-12.562595 -28.66037 58.658634 -0.1704365 0.26207697 0.94987738
-2.7423 -29.008049 59.843964 -0.075405009 0.22285211 0.97193164
0.068136737 -29.837425 60.345005 -0.029762983 0.22290906 0.97438478
2.1154549 -29.798092 60.245117 0.064235456 0.25226736 0.96552312
5.6300812 -30.640915 60.198788 0.10098262 0.21825835 0.97065228
-21.94384 -31.793957 56.671177 -0.32301793 0.19983898 0.92505336
-14.34125 -31.187981 59.152584 -0.26581821 0.25310197 0.93020427
-11.899499 -29.964066 59.103992 -0.16636442 0.26616648 0.94946212
-23.299168 -34.304203 56.871269 -0.37034655 0.13146631 0.91954339
-19.123718 -33.637516 58.180428 -0.24525508 0.1042201 0.96384037
-10.601096 -32.073517 59.959148 -0.17278165 0.16589668 0.97088867
-9.0432377 -29.420256 59.533173 -0.15075669 0.2749787 0.94955724
10.224645 -31.474604 59.682335 0.16843863 0.23121141 0.95821166
-17.321548 -32.492447 58.440395 -0.26232016 0.16641445 0.95052326
-3.8146365 -30.728048 60.41449 -0.052268803 0.25677034 0.96505803
-24.794203 -35.739819 56.084362 -0.39517561 0.0021435292 0.91860312
-7.8759551 -31.2013 60.307713 -0.081460476 0.26511243 0.96077031
-13.238541 -32.537205 59.67186 -0.15821977 0.11216262 0.98101282
1.0127579 -32.104095 60.847538 0.052675731 0.17937821 0.98236895
9.3865128 -32.854519 60.208771 0.15241818 0.1478945 0.97718781
-21.250681 -34.076633 57.503834 -0.33308721 0.15156439 0.9306348
-17.579674 -34.898922 58.348473 -0.26222089 0.14791365 0.95360458
-15.602188 -33.633728 59.143246 -0.30804613 0.09183944 0.94692826
7.43187 -30.393234 59.817131 0.13147336 0.24064733 0.96166712
-14.952034 -35.066177 59.269897 -0.2051748 0.22073592 0.95350879
4.6283574 -33.346184 60.759724 0.095762812 0.14540827 0.98472631
-10.821509 -33.910717 60.075027 -0.24305734 0.14514622 0.95909113
-8.58741 -33.46537 60.593338 -0.15523468 0.10193377 0.98260456
-1.0053929 -33.053707 61.012817 -0.032785419 0.21018983 0.9771108
-20.575081 -35.89785 57.882553 -0.29983589 0.057933994 0.9522301
-18.554008 -35.413239 58.356853 -0.20219927 0.17540137 0.96350914
2.5473192 -33.903904 60.953564 0.058647655 0.085737675 0.99459016
7.8978167 -33.886692 60.547222 0.11445627 0.14056894 0.98343289
-5.2435603 -32.914291 60.819469 -0.066148795 0.15908895 0.98504573
-2.9489686 -33.623901 60.956104 -0.03813621 0.14482073 0.98872274
11.987589 -34.16259 59.899685 0.21190898 0.092532113 0.97289896
13.868863 -35.717609 59.460075 0.22976136 0.0028277796 0.97324294
-27.273838 10.124786 -23.350372 0.037015226 0.99712098 0.066178843
18.326788 6.1402812 46.195435 0.27842602 0.71953732 0.63619566
24.62381 7.9635167 39.879333 0.24439618 0.87626153 0.41525429
24.901136 7.1325817 41.457947 0.38596484 0.78293359 0.48789978
27.728601 8.2225447 37.201801 0.32067797 0.89557528 0.30839989
35.788696 8.7110806 25.541162 0.35573936 0.91236144 0.20259848
37.733582 8.2814255 25.341667 0.35938919 0.91279358 0.19402903
38.703541 8.44069 22.472164 0.35933435 0.91919148 0.16113901
37.273968 8.6452723 22.709652 0.34157181 0.92162824 0.18420105
16.535271 5.1826181 47.80352 0.3007569 0.54569 0.78215587
29.642088 7.9982939 36.019466 0.28780764 0.89444959 0.34223777
39.048462 8.5465527 20.47805 0.31563473 0.93635625 0.15366121
43.196117 7.2538285 17.694271 0.58484954 0.78636724 0.19894129
42.774441 8.0158558 15.352627 0.55892247 0.81570774 0.14908563
28.162926 6.16189 40.075726 0.41788536 0.71148717 0.56494051
27.07892 7.6916742 39.189426 0.37531108 0.73773158 0.56115389
40.524815 7.1079593 24.274605 0.52532518 0.81476462 0.24534051
21.94632 3.2001908 46.667534 0.42864507 0.39066312 0.81464452
21.078741 5.7597723 45.489285 0.33422121 0.6720534 0.6607877
24.783619 5.5779452 43.504791 0.41864079 0.63426983 0.64995509
24.942625 4.2273173 44.493435 0.46936777 0.42165807 0.77582103
27.08423 5.4378362 42.156109 0.47239047 0.62018031 0.62627763
-33.632401 10.166131 -16.610769 0.33710885 0.92089474 0.19573024
44.158554 8.1416616 1.7861542 0.45257619 0.89165694 0.011084653
41.846889 8.7936478 0.87550366 0.44085661 0.89748937 0.012583029
-36.530834 10.296659 -15.304827 -0.47790462 0.84067011 -0.25471747
19.835951 10.168 -28.997416 -0.067297928 0.99011219 0.12308066
17.614592 10.016129 -28.979328 -0.048977964 0.99364662 0.10132901
20.283979 9.8932543 -26.477474 -0.043844976 0.99526483 0.086749837
22.893204 9.8836489 -24.780787 -0.070725024 0.99411476 0.082059935
26.736715 10.127609 -23.14599 -0.063496329 0.98693442 0.14808382
28.783625 10.210174 -22.795795 -0.055060625 0.9852342 0.16211675
21.021685 9.5840969 -21.570629 -0.041610926 0.997504 0.057046827
-21.080414 9.7321243 -20.772823 0.044187721 0.99685389 0.065800183
-19.367422 9.5070229 -18.887169 0.024648167 0.99835068 0.051849574
23.686512 9.7225046 -21.84256 -0.054145567 0.99607372 0.070038326
-24.538044 -16.974554 -45.365723 -0.43908742 0.26292008 -0.8591131
27.184626 9.9287128 -21.628347 -0.056224082 0.99167258 0.1158639
28.79483 9.8217707 -20.588305 -0.05142438 0.99568635 0.07722792
-23.741776 9.6883411 -17.535379 0.093525402 0.9933269 0.067488916
26.245247 9.7073336 -18.286737 -0.040113002 0.99774814 0.053754505
-21.80405 9.4629202 -16.902828 0.051961314 0.99742752 0.049380034
32.689964 10.125641 -17.092211 -0.20300311 0.96064162 0.18962431
32.632545 9.750536 -16.025818 -0.049525879 0.99776274 0.044908565
34.464451 9.9154587 -13.276528 -0.14112648 0.98938382 0.034684788
-30.618525 9.9002638 -12.174513 0.060921136 0.99756539 -0.033941314
-21.711685 7.3711729 -37.511787 -0.31191093 0.74218088 -0.59319407
35.508709 10.086992 -11.749696 -0.053464156 0.99847275 0.013919756
36.78001 10.322932 -9.1629972 -0.085802481 0.99615121 0.017907927
-13.188079 8.7861528 -6.5293078 0.033508539 0.99882156 0.03510914
36.141045 9.8744602 -6.400423 -0.15369317 0.98548448 0.072102025
28.678341 9.3907728 -5.8366046 -0.048766956 0.99705374 0.059207242
27.031044 9.216423 -5.6149673 -0.097514868 0.99360919 0.056847919
37.828415 10.142843 -4.5050392 -0.17111251 0.98287541 0.068384171
-10.213848 8.7630243 -6.5076647 0.034374095 0.998788 0.035228241
37.155567 9.8159285 -4.324996 -0.19717446 0.97723746 0.078289285
37.529888 9.7057199 -1.7939408 -0.19803971 0.98002255 0.018331006
38.934917 10.276223 -0.92067409 -0.18899782 0.98064113 0.051213503
-13.917917 8.7559376 -2.775147 0.031971332 0.99937141 0.015311903
38.253075 10.025308 0.27658704 -0.23572004 0.97171581 0.014296638
-5.7704549 8.4561968 -1.5128474 -0.0026973542 0.99926907 0.038132846
18.637531 8.8887224 -2.1329408 -0.044331621 0.99881154 0.020253679
-16.556332 7.6265407 -39.509457 -0.2447951 0.78205925 -0.57311326
16.320307 8.6170073 3.5538926 -0.051066734 0.99859738 0.013985895
21.057068 8.7643118 0.36013332 -0.011989431 0.99945509 -0.030752843
18.463036 8.808095 0.6471414 -0.041539524 0.99910218 0.0083104968
-23.698561 6.4287443 -37.4921 -0.39410293 0.5721463 -0.71925765
20.881979 8.8720751 3.9306581 -0.0065143155 0.99987572 0.014356676
40.141361 10.021282 9.3586016 0.67825544 0.72979122 0.085874178
-38.551201 10.41337 14.319775 0.20489195 0.97847474 -0.02462426
-38.704548 10.328391 16.091444 -0.47293246 0.85318673 0.22001664
-38.939011 9.7246675 18.430517 -0.4859055 0.85272831 0.19170371
-39.489639 8.9000034 20.397846 -0.37336627 0.91006655 0.17993475
35.80415 10.023861 21.428532 0.53581339 0.79718244 0.278216
35.982098 9.4486656 22.819588 0.50720406 0.82104367 0.26197597
34.519547 9.7608681 24.324495 0.4363122 0.85442978 0.28210193
18.611935 8.65417 10.550875 -0.017357545 0.99984729 -0.002033826
-26.008089 10.090864 35.409515 -0.40342441 0.72813642 0.55413556
-28.042038 8.8243046 35.653339 -0.26541713 0.89888859 0.34864467
-30.45056 8.1103277 36.647732 -0.33964956 0.8468377 0.40927258
-24.773588 8.7508659 37.829632 -0.2568081 0.87553328 0.40925673
-25.992874 8.2534151 39.624256 -0.26448739 0.89061481 0.36993468
-21.713583 8.6627703 40.112961 -0.24032067 0.8965649 0.3720448
20.032927 7.972249 42.63958 0.24413452 0.8761881 0.41556332
22.239008 8.8963413 38.570873 0.20762479 0.897466 0.38916159
18.281532 9.0524979 40.751698 0.21849124 0.89533979 0.38810858
-14.47932 8.6085682 43.562847 -0.15106761 0.89577764 0.41804412
16.125299 8.3492651 42.938236 0.15301012 0.91086805 0.3832849
18.437134 7.9186296 43.752903 0.20840348 0.86421359 0.45793319
-11.379565 8.5826321 44.80484 -0.10589302 0.92143691 0.3738189
-24.685572 7.1388865 42.356876 -0.31210452 0.75955904 0.57066697
-19.889776 8.2032986 42.865429 -0.18967725 0.89418507 0.40553126
-22.634253 7.099062 43.471333 -0.30903658 0.73071432 0.60873061
-18.103985 8.0523634 44.092819 -0.18324903 0.90550393 0.38273036
4.7052522 9.4024658 44.255882 0.038491242 0.88310033 0.46760267
-15.973205 7.9699779 45.292675 -0.18585522 0.84785736 0.49658415
1.8166505 8.8921175 45.642502 0.034968842 0.90933472 0.41459325
-2.3499007 8.1326313 47.496254 -0.017851062 0.90085506 0.43375275
3.8053312 8.3323822 46.448296 0.042540498 0.90620971 0.42068318
-11.513341 7.8204389 46.801422 -0.1090091 0.91130483 0.39703971
-5.5937123 8.2052507 47.258926 -0.040165693 0.89279836 0.44866207
7.571064 8.3154488 46.336205 0.072876699 0.89741033 0.43513641
11.070277 7.7188807 47.080185 0.11476673 0.86741757 0.48416454
-21.691046 5.3815756 45.830349 -0.36818129 0.6012606 0.70917434
-19.988129 6.8354287 45.088661 -0.26718497 0.75860345 0.59424996
-26.172197 5.4148951 43.431313 -0.41022158 0.56299227 0.71746641
-23.8281 4.1244087 45.474667 -0.42070705 0.46008852 0.78187221
-20.305222 3.9092822 47.35973 -0.38917926 0.39913562 0.83019888
-10.621602 7.3638363 -41.740864 -0.12783873 0.77080274 -0.62411571
-28.744787 10.082816 -20.540522 -0.020190159 0.99933273 0.030438377
-28.544844 10.110666 -22.426723 0.02416607 0.998707 0.044725254
-25.168005 9.9559317 -21.984064 0.039273627 0.99786603 0.052164245
-23.310461 9.7681732 -19.649822 0.052079387 0.99662119 0.063512936
-38.852962 10.207772 10.674584 0.1998079 0.97885716 -0.043767449
-37.022572 9.9272614 13.065651 0.20493846 0.9783358 -0.029314758
-35.809818 9.8467569 15.124496 0.041779958 0.99886477 0.022881262
-36.433605 9.8048878 16.553537 0.11560286 0.99328774 0.0039097653
-35.453487 9.8033419 19.146544 0.063203603 0.99772871 -0.023295192
-33.475941 9.6636209 18.527725 0.049188118 0.99877518 0.0053471946
-17.114172 9.172286 -12.7314 0.038330577 0.99782413 0.053643752
-12.847489 9.1899347 -16.23173 0.030377999 0.99788642 0.057444699
-31.862827 9.5868139 16.485086 0.05970398 0.99817443 -0.009129975
-17.833754 9.4680786 -16.326384 0.0251654 0.99766248 0.063531421
-21.840929 9.0063124 7.7206516 0.032723624 0.99920917 0.022587666
-19.127859 8.9387474 11.478481 0.03154381 0.99950188 0.0009509782
8.1864986 9.1953802 -18.373312 -0.014896874 0.99842805 0.054032076
15.505301 8.9179564 -9.4990044 -0.0039373226 0.99970371 0.024018135
2.1205943 9.5960827 44.238956 0.013497077 0.89261216 0.4506233
-0.30352485 8.6796541 46.13588 -0.01540912 0.91650712 0.39972141
7.9157128 9.9238825 43.49062 0.12658584 0.81787723 0.56129575
10.712754 9.8338041 42.496017 0.16275333 0.85356873 0.49490583
39.531071 10.297981 -3.0026686 0.34950644 0.93654418 -0.027023107
11.244681 9.1794338 43.449688 0.18125708 0.82512343 0.53508615
15.718223 9.4822912 41.686325 0.21261829 0.77982974 0.58877754
40.495937 9.8430386 -0.43520835 0.55154455 0.83322078 -0.03926478
38.789494 9.8953037 1.6666586 -0.13646136 0.98996681 0.036660213
11.053876 8.5400124 44.718525 0.12005353 0.92698878 0.35535753
40.165039 10.179112 2.2294729 0.65036267 0.75960153 0.0058278376
14.833155 8.4703884 43.095768 0.16857918 0.88093567 0.44219172
