# .PCD v0.7 - Point Cloud Data file format
VERSION 0.7
FIELDS x y z normal_x normal_y normal_z
SIZE 4 4 4 4 4 4
TYPE F F F F F F
COUNT 1 1 1 1 1 1
WIDTH 700
HEIGHT 1
VIEWPOINT 0 0 0 1 0 0 0
POINTS 700
DATA ascii
72.414253 -46.673309 68.304916 -0.01865948 0.99980789 -0.00599263
121.44887 -45.426628 73.495224 -0.00640747 0.99996883 -0.0045928662
-58.478542 -47.617496 37.084755 0.0046358416 0.99998879 -0.0010170451
-19.594091 -47.579048 45.990105 -0.00037726265 0.99996614 -0.0082209632
60.020565 -46.864906 62.654945 -0.015921004 0.99985135 -0.006615581
63.749916 -46.860657 71.351814 -0.017786467 0.99983633 -0.0033235296
115.8418 -45.752457 77.450432 -0.033815309 0.99942547 0.0022896463
31.722668 -47.300278 59.676445 -0.010759047 0.99993396 -0.0040416014
36.982227 -47.295216 55.660191 -0.0081038717 0.99994403 -0.0067961635
45.381725 -47.181976 55.945198 -0.014122729 0.99988091 -0.006226866
-110.22985 -61.496727 171.11113 0.023475775 0.96218014 0.27140048
-77.992912 -47.427383 43.875805 0.012495276 0.99992132 -0.0010798558
-61.872498 -47.607395 46.319061 0.0067068175 0.99997652 0.0014040959
-49.358208 -47.736691 41.819775 0.0022278475 0.9999972 0.00085699203
-36.395264 -47.665257 46.738834 -0.0028050425 0.99999559 0.00099182106
23.425833 -47.407761 65.160759 -0.013135395 0.99989659 -0.0058438168
122.48638 -45.430092 84.017555 0.0098572113 0.99995106 -0.00082434696
-53.597504 -47.625229 53.837814 0.0042058132 0.9999851 -0.0034829977
-21.795185 -47.701305 50.013081 0.0017353311 0.99999589 0.0022929804
-11.801867 -47.662354 49.971466 0.0017186065 0.99999583 -0.0023394048
-0.93283558 -47.561142 57.236446 -0.0076371818 0.99994719 -0.0068821525
55.223534 -47.022491 68.805618 -0.014292163 0.99988061 -0.0058721565
87.15892 -46.322392 81.099419 -0.023544982 0.99969786 -0.0070523969
-39.906998 -47.788219 51.865585 -0.0016465547 0.99999845 -0.00052463316
36.698891 -47.226303 67.029778 -0.011393857 0.99991584 -0.006197101
-175.65121 -56.773853 15.010282 -0.61956894 0.78296447 0.055686492
-160.57802 -46.007885 36.462276 -0.1300234 0.99132812 0.019037362
-40.740509 -47.633541 59.723034 0.0023637016 0.99993074 -0.011523764
-26.062572 -47.664619 57.510582 0.0022246791 0.99999708 0.00093421916
-17.419355 -47.628311 61.682556 -0.0025649727 0.99998391 -0.0050702542
7.5112314 -47.496632 61.198593 -0.0026326112 0.99999309 -0.0026229145
43.750824 -47.129299 72.744194 -0.011316688 0.99989855 -0.0086522046
-165.0051 -47.630169 35.080379 -0.45822725 0.88720226 0.053850245
-144.79155 -46.173508 40.911316 0.033203997 0.99939978 0.0098794866
-100.65921 -47.270885 43.372364 0.017243877 0.99985075 0.001025439
-97.617805 -47.303955 53.107742 0.015898984 0.9998731 0.00099691108
-74.524231 -47.48518 51.180614 0.010598813 0.99994379 0.00039968747
-60.684898 -47.673939 54.071976 0.0046511539 0.99997914 -0.0044766758
-34.640339 -47.677349 61.547989 -0.0013414472 0.99999523 -0.0027962776
31.016827 -47.171738 78.920471 -0.01113055 0.9998765 -0.011094396
-179.12524 -58.835072 12.807751 -0.34936512 0.93653798 0.028993119
-156.04166 -45.904675 45.361233 -0.042701527 0.99908608 0.0018585154
-136.35004 -46.482254 49.059875 0.02631014 0.99964446 0.0043235435
-45.510906 -47.641537 62.425751 0.0036986447 0.99995095 -0.0091867847
6.9698768 -47.516178 74.69664 -0.0036482674 0.99998015 -0.0051345644
42.122974 -47.031685 80.231941 -0.013341215 0.99981898 -0.01356159
76.887703 -46.47916 89.133011 -0.016721718 0.99977028 -0.013410551
-182.99698 -59.470474 13.600779 -0.17725872 0.98342091 0.038244557
-151.80765 -45.929474 41.425819 0.022295514 0.99968368 0.011634138
-149.71661 -60.702904 163.98878 -0.093091175 0.97663951 0.19367337
-68.783272 -47.585701 54.959141 0.0084564146 0.99996185 -0.0021847545
16.634485 -47.495823 69.325607 -0.0131996 0.99984783 -0.011410693
-163.97359 -47.302071 41.189236 -0.46631888 0.88323051 0.049503777
-110.88606 -47.130993 49.12669 0.019460045 0.99977827 0.0080411667
-69.280029 -47.478939 61.806244 0.0097486731 0.99994594 0.0036168718
1.4209306 -47.533684 69.812096 -0.0036316612 0.99998295 -0.0045631565
15.580631 -47.332329 77.404556 -0.014724785 0.9998123 -0.012585627
26.091148 -47.179901 83.210266 -0.0085157221 0.99984372 -0.015493057
81.424141 -46.290131 96.479492 -0.012251168 0.99963129 -0.024232039
-105.48091 -47.199554 53.356712 0.012919234 0.99991566 0.0013509637
0.93932164 -47.383415 85.774353 0.00025026238 0.99992478 -0.012263157
58.38517 -46.653088 96.69091 -0.014058576 0.99980348 -0.013983637
67.310555 -46.638294 85.508797 -0.016254185 0.99978846 -0.012600293
-118.7112 -46.985706 52.44622 0.025983984 0.99965703 0.0032670135
-112.36791 -47.137604 61.916325 0.019336717 0.99981081 -0.0020902809
-40.588737 -47.550053 72.391769 0.0020968316 0.99996036 -0.0086426819
-5.0283022 -47.511406 74.943527 -0.0029407565 0.99995875 -0.0085900947
10.34171 -47.448387 84.674423 -0.012597058 0.99983358 -0.013197455
35.594627 -47.063545 85.342163 -0.0099793123 0.99985033 -0.01413161
49.890228 -46.884979 82.579376 -0.010875638 0.99986321 -0.012465008
-120.6032 -46.884975 63.492653 0.023453001 0.99972326 -0.0018308439
-104.078 -47.244835 60.17585 0.012789626 0.99990934 0.0042221397
-76.592728 -47.439339 66.171875 0.013153147 0.99990177 -0.0048403437
-129.00119 -46.783096 64.882332 0.018529315 0.99982643 0.0019050979
-69.739716 -47.681335 65.875938 0.007460468 0.99997008 0.0020431611
-32.276806 -47.525177 86.21347 -7.8537278e-06 0.99995583 -0.0093978941
65.762222 -46.469971 98.951057 -0.020469267 0.99965525 -0.016439784
-37.031479 -47.439941 81.530388 0.0013604754 0.99997097 -0.0074984445
-33.009083 -47.523792 75.661537 0.0041843117 0.99996394 -0.0073816087
13.579261 -47.159603 97.165886 -0.014937066 0.99977481 -0.015072444
50.730888 -46.757145 94.193222 -0.010159839 0.99986446 -0.012952899
-175.42105 -57.843586 33.25621 -0.47317412 0.87957066 0.04961668
-174.49208 -57.19117 31.279362 -0.60307568 0.79537904 0.060596265
-136.85272 -46.615414 66.097527 0.02049098 0.99978876 0.0015973084
-115.40295 -47.044571 67.009209 0.021452222 0.99975413 -0.0056126672
-107.47694 -47.18811 74.769295 0.02427339 0.99969465 0.0046279733
-81.813835 -47.344967 73.390297 0.006189947 0.9999786 -0.002113461
-51.124165 -47.513527 80.414253 0.0012865044 0.99998373 -0.0055535152
-6.8021755 -47.404984 83.043526 -0.0042565702 0.99993223 -0.010831654
29.138651 -46.978058 92.402412 -0.0045276554 0.99990427 -0.013075249
37.877434 -46.930023 92.384712 -0.01264425 0.99987447 -0.0095471777
51.145454 -46.570511 105.72243 -0.0099836765 0.9998281 -0.015620196
-124.42566 -46.783394 69.384254 0.01773975 0.99979347 0.0099154925
-90.998215 -47.378773 71.317856 0.0031241386 0.99999428 -0.0012933856
-93.103416 -47.349949 79.777031 -0.00050421513 0.99999601 -0.0027902091
-66.934143 -47.465851 82.18383 0.0026599567 0.99997026 -0.0072451853
-97.673325 -61.332806 170.36932 0.0094845463 0.97690463 0.21346553
42.855045 -46.784924 99.794334 -0.015005958 0.99975938 -0.016002711
75.018707 -46.181751 101.70871 -0.020307686 0.99961299 -0.01901027
-177.83412 -59.264133 36.155762 -0.26957968 0.96232593 0.035432935
-85.59375 -47.330204 82.180786 0.0052173184 0.99998593 0.0009862117
-72.461563 -47.495674 75.932053 0.015224487 0.99986142 -0.0067312168
-41.018688 -47.423161 86.459305 0.0013142427 0.99999875 -0.0007794525
-10.137227 -47.339909 93.715225 -0.0061450172 0.99992102 -0.010963407
31.474707 -47.018139 99.850433 -0.0041030822 0.99991411 -0.01244614
77.394768 -46.0476 112.58772 -0.014987607 0.99983943 -0.0098226508
-173.85847 -57.522366 41.537674 -0.5404579 0.83983135 0.050877042
-49.536655 -47.439766 86.248306 0.0027249719 0.99995184 -0.0094345324
-0.49668404 -47.158077 98.627235 -0.004402651 0.99990416 -0.013125426
2.8581741 -47.136272 103.5979 -0.0073906276 0.99992228 -0.010040222
31.075859 -46.833679 104.27486 -0.0075238026 0.99966282 -0.024851069
-127.39466 -61.136463 171.12617 -0.00517597 0.9738279 0.22722758
-177.35767 -59.475662 43.042332 -0.23504044 0.97143841 0.032609139
-174.5296 -58.103329 46.009911 -0.53181225 0.84552002 0.047662459
-77.323853 -47.402431 85.119759 0.0065360204 0.99997759 -0.0014570036
-60.106163 -47.436363 84.862724 -0.0012218816 0.99995279 -0.0096432976
-54.333588 -47.293514 91.770454 0.0012470809 0.99998522 -0.0052911607
-16.16474 -47.372246 91.953697 -0.00076907332 0.99993742 -0.011163002
41.467686 -46.690323 107.09826 -0.011665501 0.99974316 -0.019432236
111.75904 -45.340218 126.44153 -0.00068930339 0.99512672 0.098601855
-101.06411 -47.34407 83.300331 0.010644937 0.99989367 -0.0099666324
10.291227 -47.070553 101.71897 -0.015100394 0.9997589 -0.015941551
-45.821987 -47.490578 92.0411 0.0052309083 0.99993008 -0.010611224
22.864042 -46.796974 105.20683 -0.0065988945 0.99987245 -0.014550683
31.619373 -46.667358 112.506 -0.0099864257 0.99984288 -0.014648587
-103.13329 -47.178501 92.184921 0.010328783 0.99992353 0.0068006758
-85.918236 -47.388718 92.376251 0.0048751994 0.99998134 -0.0036840076
-67.036087 -47.361172 96.737518 0.0023698844 0.99996144 -0.0084644658
-65.189781 -47.409187 90.739372 -0.0033699239 0.99998093 -0.0051814644
-18.495684 -47.280945 102.10345 -0.0036408682 0.99993491 -0.010815893
-13.084357 -47.115917 107.38795 -0.0017712301 0.99993956 -0.010848738
44.198738 -46.47403 114.98135 -0.0099077653 0.99980187 -0.017262623
51.403595 -46.348839 118.96071 -0.011790323 0.99982828 -0.014295206
104.7774 -45.84536 129.98289 -0.0040929751 0.98229575 0.18729188
-93.977333 -47.273697 88.783958 0.0041833753 0.9999907 -0.0010079184
-73.960983 -47.380325 94.615608 0.0020972686 0.99997079 -0.007348801
-30.342381 -47.261791 101.99789 -0.0018664803 0.99999744 -0.0012317117
91.671959 -45.71851 129.39316 -0.012408214 0.9979834 0.062251445
97.575363 -45.881096 130.17062 0.022457855 0.983468 0.17968357
-149.57816 -46.288673 79.059258 0.0053470945 0.99996394 0.0065984423
-137.83932 -46.669712 87.655495 0.023831593 0.99971592 0.00038535506
-114.0431 -47.061211 89.480469 0.016958166 0.99982935 0.0073300968
-82.0354 -47.287933 99.156837 0.0034028376 0.99998039 -0.0052566514
-59.762611 -47.40197 97.165298 -8.6486696e-05 0.9999879 -0.0049135564
-28.454071 -47.309597 107.96857 -0.0021915147 0.99990749 -0.013424195
-5.5174818 -47.147476 112.28649 -0.0016559655 0.99991167 -0.013190293
6.9373708 -47.040985 109.54848 -0.013937416 0.99983984 -0.011223906
36.575478 -46.519917 119.51493 -0.0089354273 0.99983245 -0.015976448
46.386562 -46.418987 123.97672 -0.013085543 0.99962437 -0.024081757
60.386951 -46.05695 129.03647 -0.0094773239 0.99986356 0.013537403
-142.948 -46.506702 90.940422 0.023277555 0.99969733 0.0079581924
-130.57973 -46.843777 94.581497 0.021808222 0.9997533 -0.0042046001
-129.15605 -46.817688 84.616966 0.017959476 0.99983579 -0.0024265053
-123.7785 -46.89389 93.103256 0.016527405 0.99977535 0.013275694
-97.557251 -47.398758 94.967239 0.0039863298 0.99995267 0.0088772932
-63.016876 -47.292366 105.4796 -0.0022533529 0.99996132 -0.0085019916
-10.890738 -46.961285 114.74697 0.0012606543 0.99982053 -0.018901965
51.206421 -46.010838 128.45515 -0.007689443 0.99964362 0.025564717
-155.2205 -46.385593 85.366341 -0.1564656 0.98736364 0.025134198
-45.4342 -47.192974 110.89011 -0.0012848336 0.99990737 -0.013546171
-37.167778 -47.157959 108.81964 0.0027838901 0.99971461 -0.023726817
15.053112 -46.709393 121.60672 -0.011809588 0.99967515 -0.022584589
22.434324 -46.651051 122.77205 -0.010151775 0.99977553 -0.018601062
45.209011 -46.30191 127.17387 -0.0072941855 0.99997342 0.00014084521
-103.26692 -61.39817 171.18658 -0.0037817445 0.98801464 0.15431412
76.646805 -45.907112 130.0885 -0.014951902 0.99767661 0.066466354
76.474251 -46.671532 134.57368 0.024749987 0.96312648 0.26790801
91.470856 -46.515682 134.00397 0.0055413195 0.95049661 0.31068578
-121.24951 -47.096573 99.047287 0.023917645 0.99970341 -0.004590279
-113.91502 -47.181538 95.451866 0.012466862 0.99991822 0.0028442251
-107.10825 -47.275509 94.884476 0.011128214 0.9999364 -0.0018098812
-28.588829 -47.197674 111.75645 -0.0018239634 0.99990571 -0.013610207
9.5131989 -46.878998 118.05224 -0.016561123 0.99968207 -0.019013904
22.306694 -46.444756 127.89774 -0.010348985 0.99993199 -0.0053812941
35.820366 -46.337944 125.40184 -0.0086211935 0.99965322 -0.024882767
101.46677 -47.615627 135.32764 0.030527998 0.88227463 0.46974418
-151.11638 -61.364407 168.70596 -0.029496027 0.99104571 0.13022447
-102.62233 -47.159218 100.82934 0.011196569 0.99990755 -0.0077106212
-78.476265 -47.378872 105.94434 0.0070168064 0.99996555 -0.0044411109
-71.942001 -47.303375 103.58864 -0.0015127171 0.9999975 -0.0016618586
-25.615326 -47.032074 121.16766 -0.0051122257 0.99981022 -0.01879734
-17.703114 -47.100914 112.7366 -0.0082567399 0.99982345 -0.016877236
0.64238447 -47.023781 118.04011 -0.0047045196 0.9996779 -0.024940912
30.150145 -46.522892 123.51353 -0.013793672 0.99960613 -0.024439663
42.249813 -46.491844 134.882 0.00032453769 0.99252337 0.12205454
-105.88961 -47.112068 110.36977 0.007794159 0.99995279 -0.0057921307
-97.260948 -47.323212 103.97263 0.0037333115 0.99996871 -0.0069721024
-85.197113 -47.236729 104.71341 0.0027264457 0.99995309 -0.0092977826
-0.70883358 -46.757786 122.72683 -0.0092623988 0.9997555 -0.020076344
33.7584 -46.267605 130.62747 -0.0051084184 0.99986511 0.015609072
49.111027 -46.377399 134.00366 -0.0030712562 0.98919177 0.14659554
71.201584 -46.632092 135.25632 0.0079093259 0.95445961 0.29823533
-134.29608 -46.709183 97.449005 0.015703933 0.99986124 0.0055494728
-125.44524 -46.766769 102.18699 0.02526046 0.99967372 -0.0038016015
-121.26334 -46.993904 105.26376 0.01494287 0.99988586 -0.0022272761
-112.03448 -47.13385 104.21512 0.0067050033 0.99994361 -0.0082274843
-91.443161 -47.154892 112.13503 -0.0032796653 0.99998021 -0.0053704283
-71.877487 -47.227379 118.95921 -0.0014501066 0.99987191 -0.015937923
-69.270264 -47.309303 113.2303 -0.0047687637 0.99995726 -0.0079149874
-57.034073 -47.197437 115.92589 -0.0047451551 0.99992228 -0.011530261
-44.828808 -46.966419 123.90842 -0.0027499949 0.99989831 -0.013998188
10.3134 -46.633121 127.03286 -0.0098384023 0.99964172 -0.024891734
34.374958 -46.6716 135.27711 0.011841221 0.98041844 0.19656923
70.565109 -50.832497 141.63661 0.045748267 0.7081579 0.70457041
79.047501 -48.116161 137.80823 0.045621138 0.84690863 0.52977771
141.73465 -59.296398 132.78511 0.21108419 0.96262568 0.16969192
-139.31416 -46.72279 101.92226 0.021866385 0.99975216 0.0041874456
-127.72903 -46.930931 104.55165 0.011995901 0.9998073 0.015535556
-77.902786 -47.246017 114.35866 0.0062459488 0.99993289 -0.0097608501
-63.127419 -47.140244 120.45218 -0.0041628061 0.99988961 -0.014261459
-14.476453 -46.936798 122.83281 -0.0057866159 0.99986666 -0.015267624
-7.7094555 -46.868164 128.28644 -0.0061407136 0.99995136 -0.0077173449
28.014122 -46.486969 134.87393 -0.0037614384 0.99721003 0.074552238
44.667122 -47.469902 138.32629 0.032654528 0.90274423 0.42893648
121.53906 -55.709492 140.38741 0.26824358 0.68215215 0.6802308
-110.68315 -47.069206 112.81298 0.0084135756 0.99992478 -0.0089196758
-27.723036 -46.900036 125.83081 -0.0056409994 0.99978441 -0.019984029
-21.324594 -46.830772 129.52356 -0.00088162452 0.99989974 -0.014135454
14.195824 -46.47802 131.93867 -0.010707542 0.99973994 0.020132866
19.653116 -46.698837 136.97345 -0.0019562528 0.99245536 0.12259112
56.6576 -47.231121 137.99997 0.021112103 0.90840733 0.41755283
-100.40099 -47.173565 114.23987 0.011923389 0.99990916 -0.006279143
-37.635925 -47.077713 121.77361 -0.0010998377 0.99986088 -0.016643297
4.1371841 -46.690075 130.26425 -0.011480449 0.99991459 0.0062479456
25.753107 -47.262249 139.32092 0.021982098 0.95596689 0.29265025
144.48372 -59.441017 134.87746 0.031919744 0.9991225 0.02711908
-131.3674 -46.850201 110.89605 0.017736759 0.9998337 -0.0042518005
-53.069233 -47.075787 124.53674 -0.0056184172 0.99987024 -0.015099948
-29.522095 -46.772099 135.27679 8.7840817e-05 0.99991959 0.012679401
-12.14397 -46.748718 134.93114 -0.0016791788 0.99931461 0.036978967
3.9872923 -46.965748 139.92224 0.00080357585 0.98310566 0.18303716
29.681089 -48.437229 141.95044 0.049471658 0.79163456 0.60898876
35.974251 -47.857113 140.21309 0.032168373 0.92142045 0.38723311
-126.25454 -46.918282 114.84208 0.017785104 0.99983519 -0.003659582
-118.19935 -47.04488 113.72014 0.0058158357 0.99997556 -0.0038799965
-59.329506 -46.963707 131.41985 -0.0039507169 0.99985862 -0.016343759
-35.943501 -46.894787 131.85353 -0.0026371684 0.99990749 -0.013344319
-21.681791 -46.816936 136.04282 -0.00050585181 0.99911124 0.042147972
-3.2088664 -46.78677 134.0648 -0.0096698422 0.99993098 0.0066811563
13.383659 -46.971416 138.27933 0.01899996 0.98486388 0.17228448
136.04153 -59.390274 142.94461 0.075361215 0.99452561 0.072384454
-140.99695 -46.653912 112.88957 0.013349202 0.99989814 0.0050554597
-88.681587 -47.131954 121.68154 0.00096445472 0.99993742 -0.011142977
-64.534119 -47.011627 129.73457 -0.0050675189 0.99993259 -0.010446531
-0.13768128 -46.702419 137.43636 0.0018330798 0.99080998 0.13524841
13.780163 -48.302761 142.74666 0.04072259 0.90127587 0.43132758
104.13595 -53.798145 141.06006 0.061451092 0.64791399 0.75923061
125.19199 -58.112518 142.11212 0.15798968 0.90356535 0.39825732
-126.02973 -46.88623 121.7868 0.015810793 0.99987495 0.00012403422
-98.791733 -47.09222 123.48928 0.0012179031 0.99992996 -0.011775346
-83.694099 -47.1395 124.69382 -0.00065369706 0.99988323 -0.015269376
-19.717941 -47.354927 141.96785 0.018716199 0.9837482 0.1785752
7.3472552 -47.79081 142.44296 0.030009015 0.868828 0.4942039
40.949131 -50.712639 143.73094 0.039122965 0.71968478 0.69319779
82.612419 -56.564541 145.35165 0.024989611 0.75174522 0.65898007
91.589249 -55.429749 143.38458 0.066130087 0.71066827 0.70041227
98.271362 -55.997398 143.29578 0.046342656 0.75947696 0.64888149
118.02286 -58.32782 144.39011 0.094539717 0.88439131 0.4570713
-150.81345 -46.478508 121.02908 -0.099834561 0.9948774 0.015873672
-131.20981 -46.751213 118.8056 0.015050911 0.99988663 0.00046128436
-104.48162 -47.032051 121.74355 0.0081913769 0.99996078 0.0033649013
-82.957932 -46.9655 132.18953 0.0015098844 0.9999724 -0.0072711357
-71.223145 -47.058575 127.02477 -0.0011841623 0.99990785 -0.013522597
-55.992565 -46.860855 135.27022 -0.0048306533 0.99998277 -0.0033170795
121.8966 -59.494675 148.10564 0.042753242 0.98653054 0.1578915
131.02574 -59.325306 143.50525 0.11034283 0.97453177 0.19522384
131.41141 -59.291607 146.92088 0.0079662222 0.99991035 -0.010764712
-145.89633 -46.686531 118.23968 0.01546012 0.99987566 0.0031121743
-119.34327 -46.99506 123.22767 0.010983065 0.99992615 -0.0052009313
-93.638847 -47.086784 127.15385 0.0078733983 0.99974906 -0.020973245
126.75259 -59.241127 149.92444 -0.025032707 0.99924338 -0.029767599
-45.502907 -47.517647 144.64735 0.024469223 0.97236437 0.23218262
-12.010597 -47.590939 142.83357 0.008719312 0.94265056 0.33366734
112.47334 -59.41048 149.69337 0.012785068 0.98456103 0.17457415
119.88554 -59.394901 151.6526 -0.0052963388 0.99991298 0.012086218
-147.16745 -46.667728 123.9781 -0.0082283169 0.99995172 0.0053810789
-141.35222 -46.615379 123.61143 0.011068332 0.99989825 -0.0090069473
-133.97731 -46.828712 122.31552 0.011840935 0.99992949 -0.00085391261
-132.75909 -46.745682 129.53889 0.013532152 0.99990845 -8.5837397e-05
-120.6066 -46.926308 128.15553 0.0098443227 0.99991488 -0.0085626235
-89.450218 -47.072571 136.54431 0.0071233269 0.99990731 -0.011602126
-93.25238 -46.851696 133.96902 0.0072638262 0.99996006 -0.0052053076
-66.721428 -46.950977 138.01132 -0.0068609929 0.9999727 0.0027225225
-48.736267 -46.827152 138.08731 0.0034363668 0.99883121 0.048211712
1.107142 -50.230778 146.41591 0.037879772 0.7668497 0.64070797
47.513508 -50.666515 143.28546 0.053612031 0.71186429 0.70026785
60.048592 -56.378761 146.66757 0.058654606 0.73923886 0.67088413
68.020569 -58.328796 148.8022 0.068759874 0.84369212 0.53240561
92.175171 -58.54945 147.27602 0.029170822 0.88498002 0.46471435
102.05018 -59.563675 148.91582 0.0048946599 0.96047688 0.27831668
113.7505 -59.598984 153.16557 -0.0033245913 0.99845707 0.055428416
-143.30038 -46.621773 128.61884 0.01027203 0.9999463 -0.0013823943
-121.08231 -46.845398 133.4245 0.006493751 0.99997318 -0.0033883243
-108.78241 -47.006374 131.85321 0.0064019193 0.99993753 -0.0091602569
-99.972542 -46.935013 136.41382 -0.0048683179 0.99996203 -0.0072339303
-87.452545 -46.751938 141.36491 0.0050292457 0.99966502 0.025386216
-79.092072 -47.023193 137.64429 0.0020254552 0.99996984 -0.0075024869
-71.755371 -47.072704 144.28624 0.01457099 0.99657577 0.081391409
-57.700466 -47.102299 143.39023 -0.001163663 0.99514312 0.098431893
-52.869514 -47.664654 146.5739 0.038551159 0.9271884 0.37260628
-27.187941 -48.341118 146.01711 0.030241027 0.88812715 0.4586018
6.1978674 -51.95195 147.60002 0.052660517 0.66876197 0.74160933
35.325035 -55.996773 148.32059 0.052278973 0.70386505 0.70840722
105.67712 -59.546387 153.52916 -0.0095979515 0.99978167 0.018562164
-106.6964 -46.975479 139.27814 0.0013824186 0.99994981 -0.0099303126
95.395668 -59.503681 148.87077 0.0020532205 0.92521101 0.37944752
-90.173523 -47.088753 144.72754 0.016034262 0.98829794 0.15169093
-36.17786 -51.140686 150.35367 0.046020817 0.7376796 0.67358077
-11.734129 -50.848194 147.90019 0.051112141 0.71081394 0.70152062
-4.8890271 -48.9543 145.43265 0.044407401 0.81412864 0.57898402
24.423382 -56.754944 149.97421 0.05423855 0.7416786 0.66855901
66.139938 -59.997097 152.7207 0.0092394957 0.97055715 0.24069396
-137.31152 -46.712879 136.15045 0.0076846532 0.99995148 0.0061693341
-131.02043 -46.775051 141.82756 0.0097498819 0.99977684 0.018742001
-120.59127 -46.879486 144.77106 0.0041298801 0.99908584 0.042548176
-113.96024 -46.871296 140.88264 0.007965086 0.99996781 0.0010232151
-113.85278 -47.000908 144.39575 0.0062731849 0.9979803 0.063213438
-77.777596 -47.570259 147.60992 0.025660278 0.93772125 0.34643951
-72.495125 -47.836296 148.59569 0.0012605969 0.91855568 0.39528963
40.635159 -59.79237 153.3566 0.016189102 0.94528443 0.32584569
-153.13733 -47.19236 132.2989 -0.25274628 0.96522754 0.06674739
-102.47948 -46.897659 143.6779 0.0028994442 0.99781454 0.066012755
-174.05106 -60.738571 109.67574 -0.26351619 0.96387529 0.038775407
-98.241608 -47.686459 150.02188 0.032598753 0.94495243 0.32557979
-84.658653 -47.389835 146.70961 -0.0037556826 0.98357534 0.1804592
-8.2620277 -56.271015 152.06178 0.063314423 0.72291225 0.68803293
50.141102 -60.27776 155.04764 0.0072196294 0.97847551 0.20623666
59.762619 -59.936069 157.58371 -0.02475119 0.99925846 -0.029495481
67.262177 -59.810486 157.71661 0.0093026916 0.99917978 -0.039411824
72.185036 -60.111252 156.0746 0.0052669435 0.9963823 0.084820896
-68.790565 -49.302631 150.93591 0.041354693 0.82443225 0.56444782
-52.306133 -51.633339 152.17468 0.065067939 0.7217139 0.68912649
-34.355892 -56.790855 154.66124 0.064988159 0.65910244 0.74923998
13.150935 -56.355511 150.47124 0.055491097 0.66574496 0.74411309
16.789852 -58.994705 153.3349 0.028207451 0.86534172 0.50038791
30.827271 -59.190815 152.53175 0.040920094 0.88993615 0.45424572
-139.55678 -46.677624 141.93286 -0.025749113 0.99889469 0.03932431
-64.095016 -50.909267 152.46863 0.07053306 0.71879125 0.69163889
27.083361 -60.540928 159.23842 -0.0018865877 0.99349892 0.11382605
-170.36661 -60.029743 115.34542 -0.38185099 0.92330003 0.041315582
-167.72928 -58.5257 118.13975 -0.5385083 0.84099841 0.052253913
-165.07721 -56.920444 121.76922 -0.73717725 0.67351025 0.05434807
-137.61131 -46.972816 148.17119 -0.05723634 0.99178237 0.1144185
-122.76575 -47.316521 149.47685 0.022734692 0.98965931 0.14162514
-112.63852 -47.489574 150.90321 0.017184345 0.97763193 0.20962003
-105.36381 -48.043636 152.20868 0.04169691 0.91110533 0.41005901
-86.042404 -48.565311 151.27788 0.044531349 0.91402483 0.40320647
33.477882 -60.497498 156.28305 0.0016494653 0.9906345 0.13653024
-148.81166 -47.394325 142.82753 -0.19376294 0.96297455 0.18744597
-80.634315 -51.234436 154.13254 0.078544617 0.72354621 0.68579262
-58.679375 -50.795483 151.97383 0.050471853 0.71735066 0.69488174
-29.456602 -59.212742 156.68675 0.051953435 0.85508698 0.51587498
1.0148025 -56.298134 151.26031 0.045530234 0.73116547 0.68067914
-124.12219 -48.572803 154.84627 0.052167032 0.8639186 0.50092256
-99.855118 -50.784073 155.52875 0.056560449 0.7179004 0.69384432
30.648365 -59.813873 161.24673 -0.093510836 0.97771484 -0.18796122
-138.42497 -48.065094 152.88011 -0.1164804 0.90939367 0.3992936
-41.269802 -56.230789 154.67519 0.061110552 0.70320797 0.70835304
2.9710147 -60.60191 158.11687 0.0095374566 0.95514774 0.29597628
-145.74304 -48.266003 149.92216 -0.32333013 0.85676563 0.40175909
-24.66062 -60.122604 158.3 0.015952192 0.93106431 0.36450619
-7.1180744 -60.237873 157.14571 0.032951482 0.88084567 0.47225538
5.8732514 -60.532845 162.49773 -0.0058239591 0.9996537 0.025661254
-140.38817 -51.574532 157.32263 -0.23185357 0.69910371 0.676386
-6.0807796 -60.83268 161.03488 0.010644515 0.99778557 0.065655388
0.36806297 -60.575459 162.91855 -0.022880128 0.99957776 -0.017909519
-117.32626 -51.696682 157.7769 0.060119588 0.67592174 0.73451716
-61.285988 -58.003281 158.10149 0.053304151 0.78642327 0.61538363
-46.072571 -58.172558 157.1953 0.038930766 0.7526595 0.65725791
-89.538536 -51.179474 155.17812 0.061228033 0.71066445 0.70086175
-52.352665 -59.15435 158.67957 0.052285187 0.7631588 0.64409238
-7.4838667 -60.688454 163.98111 0.012065411 0.99931312 0.035038956
-140.89052 -61.405857 171.33759 -0.025339015 0.99123353 0.12966909
-33.140034 -60.881927 162.75475 0.012004711 0.98176944 0.18969646
-140.38844 -60.866936 167.59509 -0.075421371 0.9517808 0.29736325
-14.866681 -60.83033 163.99323 -0.023542514 0.99769294 0.063676216
-127.3488 -51.953506 159.06802 0.050286785 0.69430262 0.71792418
-71.559914 -58.901386 160.10983 0.048108656 0.78127348 0.62233216
-59.717823 -60.849091 162.70679 0.02944934 0.9549396 0.29533541
-52.554714 -60.422646 162.70825 0.01543792 0.96829653 0.24932609
-22.256134 -60.958904 164.96118 0.0058824848 0.99245387 0.12247753
-117.21429 -58.325428 162.96921 0.025201105 0.81122732 0.58418751
-111.24907 -58.890549 163.37502 0.069310024 0.78466856 0.61602861
-79.106499 -56.855171 158.39328 0.042859312 0.7123493 0.70051521
-30.639637 -60.71312 165.90672 -0.030741483 0.99910307 -0.029121606
-133.27762 -50.313747 157.40991 -0.070623934 0.72164041 0.68865621
-19.790724 -47.064819 -41.996746 -0.00092398585 0.99991971 0.01263819
-11.661224 -47.17107 -38.751698 0.0090567172 0.99982464 0.016389756
13.183138 -47.569706 30.857498 -0.0092500597 0.9999572 -7.6382159e-05
-57.418037 -47.433273 -6.0496564 0.010514176 0.9998911 0.010358277
-8.5786648 -47.615723 62.440567 -0.0032225491 0.99997729 -0.0059239729
-108.78961 -46.702766 -0.6422646 0.020430975 0.9997049 0.013145059
-136.30458 -46.548325 59.785172 0.027680451 0.99957407 0.0092398021
-16.294533 -57.840084 154.10675 0.037939802 0.76358414 0.64459276
-162.88029 -47.390171 51.85796 -0.49878961 0.86452085 0.061747011
-135.53912 -46.737812 103.82406 0.018359574 0.99981534 0.0056817154
-149.38524 -46.881718 138.04205 -0.083485842 0.99502939 0.054282617
25.136871 -47.195202 -30.439465 -0.002788787 0.99984628 0.017311921
-15.789956 -47.594543 33.054756 0.002447048 0.99999619 0.0012699789
-130.71907 -46.183247 -2.5254869 0.03454376 0.99933898 0.01132424
-172.79631 -55.398254 29.067095 -0.7570442 0.64887553 0.076449506
109.17884 -57.515453 144.40244 0.045321103 0.84400392 0.53441882
110.34634 -46.600899 132.64116 0.019094361 0.93715084 0.3484017
112.03924 -45.466278 122.20031 -0.019590694 0.99974769 -0.010985074
-86.314499 -57.742367 159.76244 0.057549212 0.70761889 0.70424682
101.0508 -45.704914 114.98894 -0.015440838 0.99982297 -0.010755104
59.163307 -46.516685 133.27124 -0.0024986006 0.99369699 0.11207253
50.266033 -48.019714 139.37813 0.021892188 0.86827141 0.49560618
-111.09875 -49.638004 155.06798 0.056426346 0.79955918 0.59793079
60.542229 -46.278477 117.47407 -0.016774209 0.9996143 -0.022132466
80.077873 -46.717026 9.6311359 -0.022736847 0.99973875 0.0023366283
85.270004 -46.559448 14.376942 -0.027467882 0.99962258 0.00052398595
21.237755 -47.673576 140.18582 0.020637482 0.93429428 0.35590488
81.378059 -46.506516 73.276299 -0.020690786 0.99976295 -0.006782698
75.108971 -46.798988 42.174374 -0.022760654 0.99973768 -0.0025606742
103.47419 -46.047794 73.372574 -0.014621057 0.99988675 0.0035575896
101.64756 -45.981827 -8.2862215 -0.033248853 0.99942034 0.0073109628
97.455048 -46.03846 -19.816248 -0.030610422 0.9995051 0.0072511113
77.871727 -46.643318 -11.81587 -0.019178636 0.99961853 0.019874206
55.709396 -46.731842 -40.831879 -0.018266264 0.99976248 0.011883625
19.118927 -47.249535 -28.115786 -0.0074683796 0.99994922 0.0067692287
-138.67001 -45.910759 0.98383164 0.032482695 0.99939287 0.012600555
-166.38835 -57.198933 112.47803 -0.72224993 0.68793577 0.07141009
-42.372746 -47.137192 -39.344479 0.010452477 0.99971914 0.021270888
-38.09943 -47.232239 -28.269743 -0.00037418355 0.9999665 0.0081788115
-48.422096 -47.334835 -24.791443 0.0039061781 0.99993372 0.010826275
-51.593472 -47.584995 2.5074897 0.0021359751 0.99992061 0.012416324
-91.872566 -47.417862 42.100262 0.01205294 0.99992734 0.00027947157
-113.31828 -46.903545 20.33209 0.023336655 0.99968803 0.0089053633
-148.79121 -46.469345 106.46156 -0.013657567 0.99986905 0.0086855227
-152.09091 -46.87133 125.28308 -0.14381701 0.9891175 0.031036895
85.797546 -46.489708 1.149419 -0.028036226 0.99960673 0.0005685222
5.6933789 -47.619877 46.445034 -0.0072478168 0.99995607 -0.0059478995
-32.749355 -47.557507 50.990097 -0.0035779302 0.99999213 0.0016891494
-180.65544 -56.682629 -30.930462 -0.63744843 0.76790601 0.063086092
-12.37852 -47.510895 79.892021 -0.0036571538 0.99993849 -0.01046612
-67.03315 -47.542637 75.718666 -0.0033243401 0.99994534 -0.009916883
-119.19475 -46.945671 88.001938 0.016221048 0.9998343 -0.0082623446
-101.14499 -46.898685 131.86111 -0.0083337268 0.99973166 -0.021612288
-12.671232 -60.440601 158.69858 0.027851801 0.94963306 0.31212389
-70.921638 -60.844337 165.18144 0.026490068 0.94902885 0.31407407
96.294846 -59.696285 154.10068 -0.0049457136 0.99978608 0.020081103
-27.896267 -60.978325 162.83427 -0.016664635 0.99321783 0.11506867
-90.51992 -61.345497 168.43275 0.055610783 0.97039831 0.23502035
-8.4365368 -47.574577 31.631037 0.0037502572 0.99976182 0.021498226
-111.75359 -46.948616 118.15587 0.0036035269 0.99994975 0.0093537336
136.12367 -49.837193 68.525864 0.70532107 0.70601457 -0.063762166
130.12936 -46.116768 71.868942 0.37664336 0.92555285 -0.03862239
134.34982 -48.481133 65.846672 0.52027494 0.85369706 -0.022702402
128.98534 -45.848103 64.696327 0.28692615 0.95767182 -0.023193523
131.57393 -54.958473 -24.815948 0.73109788 0.68060851 -0.047621243
94.733063 -45.324497 -84.017776 -0.022687901 0.99967545 0.011582271
84.484268 -45.590195 -85.605095 -0.018507067 0.99969929 0.016086008
-85.816292 -43.903778 -126.04227 0.027777025 0.99904829 0.033631533
-81.072594 -44.060444 -134.00783 0.028395563 0.99951941 -0.012436072
-88.678589 -44.065556 -126.19611 0.010117524 0.99957633 0.027289828
-76.168701 -44.544445 -120.16415 0.015413262 0.9993034 0.033985473
61.808029 -45.919083 -82.437134 -0.014124592 0.99968034 0.020969242
13.389449 -46.859756 -56.723221 0.0021369506 0.99977577 0.021066621
10.556166 -46.90443 -49.771946 0.00042967426 0.9997558 0.022093782
45.755375 -46.718628 -46.914989 -0.011287774 0.99969965 0.021752264
29.740656 -46.99844 -45.907196 -0.0076479595 0.9998309 0.016723186
-3.2273228 -47.243717 -30.029627 0.00043783584 0.99984813 0.017421488
-13.683577 -47.453068 -21.49227 0.001684261 0.99991584 0.012858959
-91.302246 -45.586918 -77.930885 0.014447741 0.99946332 0.029400229
59.617081 -46.849682 79.699966 -0.014160767 0.99984092 -0.010846823
26.737299 -47.292522 74.80069 -0.010924287 0.99989742 -0.0092654852
17.449997 -47.163395 88.466164 -0.01585106 0.9997552 -0.015437201
20.397873 -46.996204 97.356377 -0.016107732 0.99969023 -0.018974297
-89.818367 -47.205635 7.9228458 0.013418601 0.99985689 0.010300349
-100.47667 -47.125916 17.731276 0.01705493 0.99981493 0.0089075193
-36.380997 -47.378067 96.000122 -0.0035466936 0.99988616 -0.014664968
-46.781235 -47.290783 99.299164 8.0731545e-05 0.99995315 -0.0096772937
-87.454765 -47.37096 61.156555 0.0049372367 0.99996895 -0.0061466182
-23.43062 -56.538841 153.60271 0.069056384 0.68605685 0.72426325
135.53508 -58.576595 136.45522 0.27613819 0.92313695 0.26751769
-13.225157 -46.082451 -85.274803 0.0064312275 0.99972504 0.022549273
59.379139 -46.150215 122.6105 -0.01751928 0.99971515 -0.016207755
81.482491 -45.944374 105.9328 -0.0067314752 0.99987805 -0.014092456
-58.966801 -46.873848 -38.633392 0.01136731 0.99982905 0.014577877
-30.123642 -47.630047 28.805176 -0.00042492771 0.99996799 -0.0079891169
8.199254 -58.869888 153.76379 0.054862268 0.85814422 0.51046896
5.2583561 -47.294662 92.562798 -0.0057865409 0.99982893 -0.01757005
-79.264526 -46.978413 -109.91824 -0.0027304962 -0.98849905 -0.15120235
-75.789268 -47.467403 -107.07825 0.0085891476 -0.99948317 -0.030975953
-54.706417 -45.843315 -138.83441 0.022102023 -0.98306596 0.18191443
-105.87737 -48.503353 -56.771797 -0.017804399 -0.9992336 -0.034860019
-145.07674 -66.07328 165.20033 0.11748263 -0.9769156 -0.17842016
-143.73465 -65.288353 162.77892 0.20034994 -0.91893768 -0.33972561
-61.152687 -45.892269 -138.66238 0.015242276 -0.99175185 0.12726314
-82.528046 -51.296391 144.99083 -0.00066400581 -0.9861027 -0.16613501
121.7914 -46.745136 -66.131035 -0.27597696 -0.96110183 0.01095574
125.81365 -48.142181 -70.916389 -0.43832436 -0.89854503 0.022103729
-136.57529 -55.016064 155.94643 0.071297586 -0.951738 -0.2985152
-136.50964 -53.238235 150.44965 0.128254 -0.95171344 -0.27891314
122.61001 -47.271713 -87.48333 -0.35118702 -0.93629771 0.0037962759
-69.4533 -46.048386 -137.33061 -0.0070161605 -0.99738389 0.071944512
-69.493172 -46.524372 -140.68396 0.021947009 -0.97770715 0.20882329
-71.534019 -47.196205 -143.26875 0.03658561 -0.91562223 0.40037161
-75.950241 -48.029106 -143.33423 0.021141224 -0.95008057 0.31128758
-74.146408 -46.591423 -140.06331 0.015588427 -0.98040652 0.19636711
-105.13284 -46.351086 -117.28473 -0.0024419657 -0.999309 -0.037087891
-74.419044 -48.11544 -77.392609 0.0075022229 -0.99993026 -0.0091245212
0.61345756 -49.578465 -25.070478 -0.0028222029 -0.99994922 -0.0096745109
-4.8745608 -49.43935 -26.359634 -0.019423878 -0.99956036 -0.022399573
3.8963542 -49.326031 -30.986719 -0.0027979997 -0.99968743 -0.024841417
120.63243 -47.647091 -134.57317 -0.42562327 -0.90395707 0.041308321
-7.5286064 -49.415108 -25.299702 0.010797622 -0.99992323 -0.0060685249
-4.1126094 -49.48547 -31.316042 -0.0037681689 -0.99970913 -0.023822671
111.56291 -45.110229 -130.71118 -0.10909746 -0.99371445 0.025088536
116.22843 -46.010098 -133.95824 -0.2498624 -0.96747965 0.039392862
112.1943 -45.403709 -138.32437 -0.16135429 -0.98572516 0.04806954
-118.66628 -46.468243 -111.19855 -0.010429265 -0.99905741 -0.042137589
106.70607 -44.971397 -128.14111 0.01227274 -0.99992335 0.001642337
107.58157 -45.038525 -136.3866 0.0039630695 -0.99972951 -0.022915516
-75.271706 -45.654125 -136.30365 0.022072146 -0.99552584 0.091875687
99.375847 -45.074226 -132.93179 -0.011851707 -0.99991173 -0.0060115159
125.80887 -58.934551 -159.03026 -0.20067146 -0.96226507 0.18378477
-35.073963 -48.802807 -61.928253 -0.0028559712 -0.99744129 -0.071433477
-133.01643 -46.991608 -104.36251 -0.02408937 -0.9991293 -0.034067035
-61.806194 -49.154259 -58.692513 -0.00099123188 -0.99961007 -0.027908074
-69.470993 -49.038437 -58.038441 -0.020601826 -0.99906242 -0.03807674
-95.202171 -49.152931 -44.099068 0.010946972 -0.99965036 -0.024072485
-16.083574 -46.539936 -120.54334 0.0077232947 -0.99941802 -0.033225395
-23.48514 -46.626865 -125.1892 0.010512497 -0.99970323 -0.021978602
-25.32963 -46.307045 -122.30086 -0.033923112 -0.9994173 0.0037642508
-21.311329 -46.201965 -128.6443 0.027439348 -0.99663728 -0.077208489
-138.27077 -48.852589 -22.637407 -0.030148994 -0.99928391 -0.022864161
-26.816965 -46.596275 -128.96313 0.0055784201 -0.99989957 -0.01302972
-148.02589 -48.563831 -17.887466 -0.029032484 -0.99945593 -0.015650496
-141.15755 -48.687096 -25.680967 -0.036709066 -0.99918997 -0.016486313
-113.47677 -48.442463 -59.999329 -0.00474814 -0.99963516 -0.026589975
-55.517895 -46.803925 -114.55068 0.018113304 -0.99640882 -0.082712837
-79.36142 -47.368778 -98.52166 0.002358394 -0.99872673 -0.050391279
-77.170067 -47.082024 -104.29558 -0.00065132749 -0.99995893 0.0090451818
-59.151512 -46.81765 -117.20461 -0.030401062 -0.99852407 -0.045005877
-62.65873 -46.225937 -119.86758 -0.019315982 -0.99804777 -0.059393428
-126.87303 -46.44553 -110.94672 -0.0022592479 -0.99936885 -0.035453044
-88.547455 -47.012413 -103.76782 -8.3963634e-05 -0.99995494 0.0094916169
-85.134689 -47.072201 -105.17654 -0.0018528079 -0.9998861 0.014983417
-85.117348 -47.579952 -107.78518 -0.008696625 -0.99936932 -0.034427341
-78.628914 -46.655048 -113.14687 -0.022766773 -0.99591315 -0.087398686
-91.942535 -47.04113 -101.96342 0.0020607449 -0.99988776 -0.014841404
-90.149384 -47.617096 -106.98811 -0.00038052304 -0.99956578 -0.029463602
-85.917183 -46.924812 -110.4073 -0.0092885979 -0.99177867 -0.12762718
-80.406845 -46.995731 -141.18701 0.014653423 -0.96024603 0.27877048
-86.047974 -48.238766 -144.68158 0.029732587 -0.8009122 0.59804314
-152.16039 -47.833561 -58.194389 -0.060991544 -0.99707818 -0.045991484
-89.156898 -47.047882 -107.64458 -0.015265707 -0.98927575 -0.14525968
-133.4984 -47.772392 -73.350204 -0.044179827 -0.99819946 -0.040569279
-137.86652 -47.521263 -70.852791 -0.049686234 -0.99835318 -0.02867201
-135.37024 -47.30418 -81.824333 -0.025682284 -0.99920672 -0.030435234
123.35365 -58.760941 -163.30569 -0.1193352 -0.98687643 0.10878432
-97.263763 -46.276825 -120.24246 -0.0053883912 -0.9987573 -0.049546167
-96.042809 -46.522598 -112.48833 -0.0056189238 -0.9963302 -0.085408807
-149.27452 -47.221863 -75.919472 -0.023475014 -0.99966443 -0.010952272
-132.59421 -47.061123 -91.902222 -0.018491201 -0.99904621 -0.039556392
-153.45004 -47.012211 -79.516518 -0.014860703 -0.99943662 -0.030093264
-147.2086 -46.815243 -101.5568 0.0037409279 -0.99959022 -0.028377844
-148.53584 -46.239799 -106.52394 0.0076568155 -0.99786764 -0.064818256
-37.925957 -46.085403 -141.05658 0.00086635165 -0.97145993 0.23720196
-41.519012 -46.083492 -141.03563 0.0085974094 -0.9836297 0.17999676
17.76388 -61.316101 151.12105 -0.029041601 -0.78659213 -0.61678958
-119.67992 -66.324547 170.44696 -0.014558894 -0.97054881 -0.24046429
-97.872841 -51.205585 146.10556 0.010111843 -0.99391913 -0.10964711
129.3988 -51.357197 -80.669304 -0.67002213 -0.69678926 0.25603732
126.55025 -48.918125 -83.63987 -0.6137172 -0.78882581 0.03324043
126.33366 -48.96534 -88.986183 -0.5368824 -0.84288764 0.036023825
-88.360596 -47.149704 -142.34604 0.056168828 -0.94558626 0.32048661
-60.506485 -51.477547 144.49063 -0.029245444 -0.97954369 -0.19909488
104.80145 -45.259785 -134.04868 -0.0030523757 -0.99985254 0.016896853
96.672737 -45.067169 -140.60112 -0.0095190555 -0.99982756 -0.015942875
-96.439293 -47.005753 -139.36963 0.00079870498 -0.97577792 0.21876182
-93.902473 -47.62442 -142.01364 0.011812389 -0.96118546 0.27564991
-96.881889 -47.270355 -105.32481 -0.013292286 -0.99975812 -0.017521383
-104.3062 -46.834072 -107.80492 -0.019014806 -0.99536085 -0.094314232
-124.37344 -53.312107 154.55765 0.026957309 -0.93851095 -0.34419537
-117.966 -52.957516 153.14204 -0.035770457 -0.88744831 -0.45951712
-126.9511 -51.814323 149.53622 0.064187728 -0.96899635 -0.23859189
-32.080189 -48.483532 -72.799538 -0.0010122955 -0.99781084 -0.066124737
-31.220623 -47.862286 -76.338989 0.0044101886 -0.99913484 -0.041353978
-73.367218 -49.66452 -29.948383 -0.010458639 -0.9994362 -0.031905364
-78.759911 -49.529781 -29.506435 -0.012718171 -0.99981749 -0.014252886
-13.360092 -46.230022 -126.77573 0.019424463 -0.99817067 -0.057253912
-77.029274 -48.805706 -58.408501 0.0088480636 -0.99910265 -0.04141812
-70.284309 -48.411812 -66.944733 -0.011590049 -0.99925017 -0.036942549
-78.398544 -48.568581 -66.991432 0.0064654956 -0.99795067 -0.063660428
-41.965755 -46.447746 -119.92244 -0.021552991 -0.99865037 -0.047252636
-101.32404 -45.906719 -129.53629 0.0038097063 -0.99843425 -0.05580835
-97.004349 -45.901012 -135.5605 0.0079401229 -0.98672074 0.16223133
-39.676582 -46.463554 -125.04459 -0.048509914 -0.99864954 -0.018597808
-88.367081 -48.513031 -57.466908 -0.019123498 -0.99957633 -0.02193924
-47.029324 -46.26981 -122.97064 0.012423432 -0.99890769 -0.045044087
-46.065098 -46.069134 -131.57845 0.011842693 -0.99950427 -0.029171899
-85.691673 -47.855412 -72.468002 0.0020497004 -0.9987675 -0.04959156
-52.309105 -46.451202 -122.32526 0.012102855 -0.9987812 -0.047849499
-57.001297 -46.260216 -128.55602 -0.00060791202 -0.99944872 -0.033196412
-61.904488 -47.054417 -103.7752 0.016169177 -0.9996084 -0.022840222
-95.829643 -48.797771 -56.304409 -0.0095872665 -0.99965721 -0.024362903
-68.839737 -47.521587 -107.74651 0.0039885202 -0.99999183 -0.00062935567
-63.830166 -46.934395 -109.6665 0.00037972329 -0.99471349 -0.10268844
-58.277756 -46.421185 -122.18645 -0.026212571 -0.99887526 -0.039511308
-63.851089 -46.148792 -126.36438 -0.032186724 -0.99929792 -0.019175423
-73.111176 -46.978931 -111.10986 -0.0030345067 -0.99577206 -0.091807924
-65.601151 -46.218624 -123.90613 -0.01749715 -0.99820602 -0.057258204
-136.98668 -49.192123 -9.2712727 -0.028687425 -0.99931931 -0.023195121
-99.536255 -48.081615 -71.448753 -0.0026000608 -0.99971652 -0.023663862
-66.33918 -45.855972 -125.41985 -0.006486862 -0.99924773 -0.038235817
-147.3257 -48.799747 -12.754661 -0.030876674 -0.99929094 -0.021548355
-101.89386 -47.751591 -82.494232 -0.011257316 -0.99954039 -0.028147647
-83.24202 -46.467979 -114.29317 0.0039417353 -0.99900103 -0.04451267
-86.376236 -46.549911 -117.96241 -0.016172571 -0.99953246 -0.025948992
-100.69323 -47.13298 -102.48071 -0.020878606 -0.99961996 -0.018002335
-90.638733 -46.549091 -115.10109 -0.010846469 -0.99848861 -0.053878695
-91.952988 -46.275665 -125.54044 -0.011064176 -0.99926454 -0.03671445
-91.901108 -46.193188 -120.05384 -0.021879142 -0.99916857 -0.034403138
-142.98456 -48.098366 -48.555553 -0.018455109 -0.99971038 -0.015446591
-148.90353 -48.1814 -52.211266 -0.010675608 -0.99987984 -0.011242008
-107.99889 -47.14822 -105.51674 -0.016513683 -0.99916136 -0.037469603
-95.2892 -46.00436 -124.5489 -0.019039592 -0.99951744 -0.024544481
-101.25408 -45.975231 -123.31503 0.0051191156 -0.99924052 -0.038627822
-101.9225 -46.056782 -125.9838 0.0026744164 -0.99973148 -0.023018621
-110.79955 -46.516781 -110.1443 -0.010848577 -0.9979707 -0.062744111
-140.50287 -47.330647 -67.92823 -0.039610911 -0.99826992 -0.043452892
-140.72476 -47.471855 -77.622917 -0.02406916 -0.99966669 -0.0093335994
-121.14675 -46.457977 -106.48618 -0.0084834527 -0.99749833 -0.070179157
-147.32079 -47.105427 -68.25016 -0.035499774 -0.99932623 -0.0093254438
-137.84557 -46.414627 -107.25394 -0.043584578 -0.99700511 -0.063884139
-141.16136 -46.600491 -102.04115 0.0026992215 -0.99881047 -0.048685711
-136.67218 -46.272289 -112.13 -0.019987328 -0.99873757 -0.046084475
-75.372551 -64.17437 161.88907 -0.056640383 -0.87346637 -0.48357877
-114.06274 -51.783695 150.11073 -0.020307563 -0.97341686 -0.22813863
-100.16243 -45.513935 -132.85909 0.0073903482 -0.99953336 0.02963895
-101.56441 -46.833855 -138.7901 0.038123503 -0.9649514 0.25964478
-109.35303 -51.270523 144.93307 -0.016845491 -0.99678642 -0.078314349
-114.94215 -51.316483 144.49796 0.018411364 -0.99916601 -0.03644621
-103.63892 -46.208225 -135.33432 0.035386965 -0.97862947 0.20256367
-11.469462 -52.667923 145.48918 -0.042175867 -0.87576848 -0.48088539
-5.5731754 -52.015972 144.42065 -0.0092843492 -0.88292938 -0.46941403
-43.930599 -50.935764 141.66757 -0.012186027 -0.98633534 -0.16429913
-8.6703157 -49.355663 -36.518204 -0.00089513295 -0.99994683 -0.010273623
-87.097755 -51.874249 147.19684 -0.012771429 -0.97469592 -0.22316955
-92.429474 -51.292942 146.60982 -0.011846855 -0.99084145 -0.13450959
-17.739141 -47.828636 -79.779236 0.00045138251 -0.99978364 -0.020799343
-39.004578 -49.194435 -59.447945 0.01514126 -0.99912119 -0.039084371
-36.234276 -48.997921 -53.461761 0.0021910856 -0.99999321 -0.0029647185
-21.451181 -48.011047 -82.79277 0.021061184 -0.99973136 -0.0096776923
-44.05854 -49.067272 -58.111877 -0.014194448 -0.99985248 -0.0096681621
-121.04928 -51.373779 147.47626 0.0097442726 -0.99398243 -0.10910506
-121.92015 -51.656712 141.25818 0.0086219693 -0.99986774 -0.013786785
-56.862839 -49.077427 -55.375942 0.015670735 -0.99964839 -0.021392174
-53.816963 -48.849842 -62.27343 -0.0038488889 -0.99939084 -0.034685999
-120.14394 -51.159328 133.03094 0.014643523 -0.99982822 0.011362406
-126.84148 -51.431854 131.01865 0.0017823932 -0.99999517 -0.0025324777
-64.357796 -47.221516 -108.04799 0.042660031 -0.99850112 -0.034286369
-55.628395 -46.005245 -136.87505 -0.01083818 -0.99969995 -0.021965716
-75.623871 -48.19976 -71.390198 -0.015695289 -0.99883848 -0.045554932
-52.775204 -46.140022 -131.87367 0.00024186711 -0.9995814 -0.028931532
-69.090073 -46.886055 -104.62659 -0.029320933 -0.99798107 0.056339439
-58.089233 -46.001526 -131.59691 -0.010100748 -0.99922067 -0.038157955
-62.881828 -45.863377 -135.92458 0.0063185017 -0.99979788 -0.019083189
-63.167648 -46.07476 -132.31917 -0.013969055 -0.99968845 -0.020686869
-106.93358 -48.789852 -50.02174 -0.013636838 -0.99883181 -0.046357375
-110.72384 -48.603443 -54.625595 -0.0037243143 -0.99961132 -0.027627651
-112.83581 -46.294674 -116.73892 -0.010954375 -0.99934185 -0.034581155
-110.76997 -48.957832 -45.875038 -0.020800788 -0.99928606 -0.031537049
-107.71041 -45.857208 -128.98135 -0.0028099678 -0.99951142 -0.031129943
-113.52447 -46.999264 -137.81758 0.0070331912 -0.98019397 0.19791517
-118.29179 -48.66127 -55.540268 -0.018925566 -0.99959987 -0.021020122
-114.49495 -48.649685 -48.069767 -0.023767985 -0.99947053 -0.022219371
-121.82978 -51.233604 136.82216 0.017844301 -0.99976522 -0.012292949
-98.695915 -46.874393 -109.29044 -0.032584608 -0.9950819 -0.093542978
-101.65421 -46.454033 -114.40517 -0.0090143187 -0.99866503 -0.050861605
-107.04591 -46.146034 -124.26558 0.00043613947 -0.99944723 -0.033242319
-106.93217 -45.912086 -133.55153 0.0091330204 -0.99446142 0.10470509
-122.26908 -45.785728 -130.87677 -0.013807498 -0.99986601 -0.0087935403
-130.5144 -46.679211 -106.87904 0.014033774 -0.99577498 -0.090748504
-124.32403 -46.155041 -119.35268 -0.0063026757 -0.99958211 -0.028210014
-127.48932 -46.222618 -117.00582 -0.0064907921 -0.99926239 -0.037848022
-130.7204 -46.032017 -121.00912 -0.014264467 -0.99911106 -0.039668422
-141.12045 -46.563694 -104.5474 -0.033139117 -0.99840593 -0.045686528
-142.45827 -46.095856 -111.90039 -0.0091783842 -0.99940091 -0.033371344
-111.82178 -45.941788 -129.50052 -0.0050399369 -0.99921662 -0.039253782
-148.8148 -66.356682 166.83887 0.03830041 -0.99565887 -0.084832922
-113.74068 -46.089127 -121.70294 -0.0088503072 -0.99962842 -0.025782451
-117.08791 -46.034286 -124.6284 -0.0018590012 -0.99959576 -0.028370788
-113.69556 -45.733395 -132.35538 0.0017857663 -0.99893588 0.046087071
-153.89342 -48.061203 -36.968903 -0.028253037 -0.99929762 -0.024616804
-119.87666 -46.178772 -117.19183 -0.0038194712 -0.99930269 -0.037143275
-119.89429 -45.936275 -128.51208 -0.0044620442 -0.99933994 -0.036053475
-9.9795284 -64.958565 161.34508 0.0079993028 -0.9892208 -0.14621337
-11.447845 -64.510155 158.23032 -0.02324912 -0.94872606 -0.31524333
-16.714697 -64.967979 161.72054 -0.0068513174 -0.97926044 -0.20248953
-19.291943 -64.046371 157.76962 -0.0091211246 -0.94609654 -0.32375613
-105.25314 -48.284592 -68.086983 0.014699918 -0.99581057 -0.090251312
-4.5955043 -49.714638 -20.670889 -0.014912488 -0.9989326 -0.043718155
-96.619225 -52.894569 151.03889 0.0027390178 -0.93679994 -0.34985465
-89.351067 -48.157139 -78.842636 -0.0021298525 -0.99999189 -0.0034150728
-22.766167 -51.87862 144.19215 0.0049758917 -0.93638271 -0.35094559
-13.433589 -50.773304 140.45612 -0.012438908 -0.98191541 -0.18891062
