# .PCD v0.7 - Point Cloud Data file format
VERSION 0.7
FIELDS x y z
SIZE 4 4 4
TYPE F F F
COUNT 1 1 1
WIDTH 1320
HEIGHT 1
VIEWPOINT 0 0 0 1 0 0 0
POINTS 1320
DATA ascii
0.048142776 0.13409875 -0.024020072
-0.15515983 -0.10140789 0.025749929
-0.069893241 0.1333731 0.054580543
0.12215069 0.10911018 0.034977578
0.1144224 0.078746632 -0.087400585
0.20540802 -0.017854374 0.0034960364
0.16003987 -0.018105345 -0.098011404
0.049552649 0.1262127 -0.051099375
0.1582711 0.086441621 0.048674285
0.17365806 0.091821849 0.0057033421
0.050476432 0.054759733 -0.12459809
-0.035573244 -0.10257068 0.10153492
0.12613049 0.11303156 -0.00036562514
0.15081649 0.10088391 -0.021023732
-0.0083393157 -0.13558821 -0.049184561
0.13867916 -0.059601475 0.090636127
0.075002283 0.048171178 -0.12168789
0.012854904 0.13251691 0.051262673
0.062103108 -0.11433616 0.067302503
0.20537025 -0.0084267575 0.036276594
-0.097099185 0.1323704 0.035330173
0.072037697 0.10624356 0.076005436
0.022505596 -0.13989401 0.018687166
-0.18105951 0.023218002 0.073182188
0.085558631 0.10325338 0.074144013
-0.097752839 -0.12597767 -0.055569015
-0.074223995 0.098127328 0.10322163
0.13843574 -0.029053777 -0.10481268
-0.046131074 0.14444257 -0.02275309
-0.010482788 0.0082585718 -0.14418711
-0.20252442 -0.03416416 0.064019993
-0.035050482 0.14459011 -0.020097338
-0.13832861 -0.11738925 0.0011948117
-0.050617576 -0.12912026 0.065470718
0.080193758 0.030257143 -0.12487719
0.081378914 -0.12579896 0.025363609
0.088556454 0.040052973 0.1190151
0.083966553 0.015824186 0.12666193
0.033695191 -0.085005507 -0.11083693
0.20559455 0.046177752 0.014425279
0.039584115 0.014436729 -0.13793415
-0.098080099 -0.13503952 0.023802456
-0.19907558 0.079042919 0.025974397
0.013408989 -0.05750186 -0.13059674
-0.097125679 0.1194673 -0.067975238
0.041815326 -0.13706879 -0.0020616015
0.095448539 0.077651441 -0.097236559
-0.16529617 -0.071395896 -0.064098202
0.015259907 0.077198021 0.11762561
-0.029625833 0.028335847 -0.14259182
0.10457911 0.11307954 -0.044083178
-0.088955432 0.10794652 -0.09024784
0.14883855 -0.03193491 -0.099485591
-0.17332056 0.083424821 -0.025603298
-0.17631128 0.083233416 -0.012581044
0.090835884 0.12500854 0.0095031885
0.088315807 0.021027606 0.12439607
0.059186488 0.12714608 0.039859824
0.013335526 -0.14134355 -0.005644775
0.070594966 -0.0047626724 -0.13097015
-0.083221316 -0.12979187 -0.056832105
0.13583419 0.1032171 -0.036264535
0.18198927 -0.0071045202 -0.088052168
-0.17625067 -0.083056644 0.0073427176
-0.16615739 0.093892299 0.014602317
-0.050127774 -0.11616242 0.087385818
-0.051562011 -0.14382976 -0.022216685
0.13032317 0.075017355 -0.082814835
0.10320976 0.025599968 -0.11900623
0.16381295 0.088846385 0.039200045
-0.13459575 0.087386318 0.081566051
-0.16180515 0.09591046 0.024787728
0.14425103 0.074086666 0.075196594
-0.16987553 0.090796426 0.011087419
-0.14118528 -0.065761104 0.095102906
-0.053858489 0.025264855 0.14261632
-0.11576036 0.070823021 0.1086344
0.20081672 -0.059094589 0.050801739
0.19179352 -0.080046684 0.02200361
0.11677486 0.071054988 -0.093736887
0.088936917 -0.061671786 0.10929848
-0.12645286 0.054323241 0.11218892
0.18865651 0.045434687 -0.071127072
-0.053025872 -0.13919576 -0.040050317
0.0097470731 -0.10128674 -0.099533834
0.10437161 0.095761217 -0.07565672
0.16024834 0.044328663 0.088048406
0.035351261 0.12894571 0.051572442
-0.14146954 0.11137494 0.030477073
0.068187609 0.13096131 -0.008621837
-0.021597669 0.077529214 -0.12253974
0.13325474 0.089060187 -0.066146068
-0.018494293 -0.087248161 0.11566034
-0.0079302341 0.14336812 -0.0016720132
-0.10535872 0.1204185 0.059267726
0.040646717 0.10948449 -0.084473766
0.11223151 0.028597612 0.11441424
-0.16706747 -0.015960639 -0.093344048
0.20522521 -0.04872904 0.042592764
-0.10800943 0.028066229 0.12986732
-0.13705659 0.075017899 -0.092915617
0.20503792 -0.022935597 -0.071686171
0.056593791 -0.070827439 -0.11415488
-0.1562596 -0.04089386 0.095514879
0.081017673 0.068455525 0.10765161
-0.16696978 0.032617662 -0.089082867
-0.10670152 0.034223795 0.12867953
0.079740137 0.12789361 -0.016274162
-0.16650078 -0.065429859 0.067067742
0.060926706 -0.11358942 -0.070026241
0.12269261 -0.066146418 -0.094502412
0.18530621 -0.079505831 0.035652556
-0.10058659 0.053724263 -0.12647191
-0.036189273 0.036794286 0.13948184
-0.094314665 0.035459932 -0.13387407
-0.19397631 0.054035068 0.062678635
-0.12349781 -0.066636264 -0.10767394
-0.032770142 0.078450724 -0.12247209
-0.02352491 -0.053259872 0.13489988
-0.045629084 -0.025489332 0.14251997
-0.19674408 0.048295513 -0.062139634
0.11619127 -0.11732271 -0.0092777833
0.058123305 -0.12891969 0.035066079
0.04378514 0.039818872 0.13013867
-0.19167036 -0.067398563 0.0288652
0.20008443 0.076748848 0.011431382
0.17363432 -0.0073339557 -0.09238822
-0.14947799 0.043599755 -0.10191998
-0.01261802 0.11669858 0.085117921
-0.14484781 -0.083056085 -0.077162139
-0.15747586 0.089122698 0.051013965
-0.0089823008 0.12668544 0.06685172
-0.10914651 -0.085024476 -0.10331362
-0.19723991 -0.042076178 0.069963619
0.1649245 0.095143594 0.016034238
0.041225985 -0.11733314 0.07055936
-0.18197781 -0.070304736 0.019245494
-0.04583329 -0.14486195 0.0029930728
0.13067472 -0.10890628 -0.025982674
-0.12690803 0.11994171 -0.034218602
0.034913376 -0.010494274 -0.13839766
0.19582888 0.039848946 -0.069487631
-0.058015466 0.087341264 0.11568155
0.096637279 -0.035852917 0.11787464
0.031253055 -0.13732173 0.023639325
-0.004729405 -0.14306302 0.010811234
0.16242716 -0.025539503 0.094282597
-0.20218313 0.042017214 -0.062992804
0.20541291 -0.052820921 -0.053477917
0.14893207 0.040259313 -0.096721224
-0.1934309 0.082359836 -0.00098350714
0.20527533 -0.054052901 0.010326459
-0.013833329 -0.0051178923 0.14331374
0.18567279 0.068825789 0.051945701
-0.14398614 0.1139129 0.011062786
0.20522767 -0.036370832 0.060728535
0.055224448 0.09757293 -0.09249647
0.13343126 -0.10503058 -0.036697481
0.075304538 0.046165396 0.12101526
-0.033679679 -0.14414169 0.021162674
0.11381657 0.095847525 0.068849653
0.026102513 0.022941057 -0.13853858
-0.01475729 -0.060091745 -0.13212827
0.092167817 0.085790955 -0.090695657
-0.18840089 -0.073036186 0.0036896886
-0.17668179 -0.050722856 0.065324232
0.088495381 0.031028476 0.12155084
-0.068331629 -0.042712286 0.13649336
0.12575638 -0.07919322 0.081349328
-0.15269583 0.017610669 0.10571939
0.18323104 -0.086587764 -0.015921596
0.065806925 0.077680171 0.10669995
0.19453755 0.046213973 -0.066776067
-0.012470216 -0.12167601 0.075987086
0.15113223 -0.078460239 0.067451335
0.017846987 -0.13259248 -0.050196934
-0.18998185 0.059359968 0.044294987
-0.044564128 0.053481542 0.13499714
0.15722598 0.08335299 0.055129088
0.071366236 0.12465291 -0.038206749
0.20548634 0.040046666 0.056554079
0.12964961 0.099339291 -0.051700462
-0.036276594 0.086316079 0.11660033
-0.015294835 -0.11485888 0.087848924
0.20556773 0.028905787 0.00025112834
0.010841936 0.038424704 0.13567296
-0.14658082 -0.1116782 -0.011657894
0.14442605 -0.10229581 -0.029473603
0.1858476 -0.029243842 -0.081379876
0.065813974 -0.12465054 0.043927848
-0.044431642 -0.064951494 0.12914295
0.20562537 0.053372301 0.010949309
-0.057394743 -0.13571136 0.050410178
-0.18211514 -0.054863647 0.052874178
-0.14248189 0.096025124 -0.063831009
0.20564868 0.044970497 -0.013314401
-0.077052683 -0.10828368 -0.093021259
0.049035817 0.13516624 -0.013365849
0.033928007 -0.044261623 -0.13161743
-0.018953279 0.14434433 0.016895309
-0.023812756 0.027377054 -0.14267798
-0.20101938 0.06791091 0.036777914
0.17172274 0.019521583 -0.091346152
-0.10704756 -0.10087609 0.087444901
0.16635808 0.02538003 -0.092693835
0.17779255 -0.06429176 -0.063843548
-0.023737013 -0.13929009 -0.038777597
-0.016308457 -0.11258851 -0.091272876
0.20566773 0.044415656 -0.023292802
-0.19343311 0.034552097 -0.07466045
-0.20251951 -0.054690119 -0.053393885
0.018071055 -0.061649024 0.12628998
-0.12430868 -0.10853028 0.062642217
0.19293499 0.079327293 0.018025208
0.0041808635 -0.13551338 0.043219469
-0.05113706 -0.12190774 -0.079060502
-0.12785786 -0.12384018 -0.0043329643
0.17902191 -0.031577632 -0.084395997
-0.14350551 0.11141602 0.024229243
-0.099239796 -0.07886111 0.11145242
-0.20218766 0.033787142 -0.073689014
-0.10117 -0.046108428 -0.12868766
-0.13548335 -0.11223095 -0.04263971
0.20566052 0.019387402 -0.058955874
-0.027554095 0.056821786 0.13368124
0.18720621 0.082425885 0.019301299
-0.0064601749 0.13482609 0.05049419
0.068555146 -0.085597508 0.099468969
0.20533027 -0.048641961 -0.0074651958
-0.04491207 0.1185399 0.084526256
0.12817833 -0.057543647 -0.09724351
-0.024552032 0.14408176 -0.021988746
-0.050081819 0.14076474 -0.035316445
-0.02396217 0.0021404969 -0.14506328
-0.059231341 -0.011793396 -0.14492847
0.041005924 -0.083585151 -0.11031721
0.054495156 0.13398577 -0.016239353
0.17713603 0.087429471 -0.021614004
-0.11216304 -0.12902388 -0.026357226
0.092194267 -0.12481271 0.013436421
0.0047406554 0.043881964 0.13486136
0.048536152 -0.1356232 0.0045129769
-0.14242256 0.060541615 0.097002491
0.13800228 -0.0089182295 0.10836277
-0.039094701 -0.094873197 -0.11063935
-0.19522387 -0.055368766 0.060034424
0.0076409131 -0.068363503 -0.12491968
-0.12789902 0.097520679 -0.078704424
-0.11118039 -0.13161048 0.014884931
0.20095706 -0.0064878622 -0.077354833
-0.0076408982 -0.11885095 -0.081674717
0.15868759 -0.097741619 -0.021390665
-0.083403945 -0.020500787 0.13939345
0.083408043 -0.021301303 -0.12673447
-0.17512417 -0.072745971 -0.043752048
-0.16528496 -0.029798923 0.090335533
-0.20171151 0.028222911 0.0714726
0.179001 0.041725226 -0.079112031
0.20545231 -0.03995768 -0.052201461
0.14417142 0.10335708 -0.023049276
-0.021055415 0.13945276 -0.037714425
-0.028667629 -0.10128712 -0.10375272
-0.057151824 0.14458421 -0.0066603916
0.1225308 0.092826143 -0.067997448
0.11459801 -0.017586935 -0.11749195
-0.1742903 -0.0036374261 0.08516781
-0.022699416 0.039738078 -0.13943562
-0.079594761 -0.10959338 0.090146497
0.13995713 -0.061750341 -0.089172497
0.15064162 -0.10303704 -0.015495739
0.20548178 -0.01360525 -0.025105398
-0.14442265 -0.034519028 -0.10858192
0.20535251 0.036230367 0.064900175
-0.043762624 -0.033257715 0.14049333
0.037306532 0.11268674 -0.080144197
-0.016579121 0.13710186 0.044496424
0.16979156 0.092032552 0.018453319
0.026971593 -0.13633229 0.029649995
0.17327118 0.061352499 -0.069043644
0.021353543 -0.0041369069 -0.14067297
0.003814742 0.057385795 0.13086529
-0.019802749 -0.12369711 -0.07469932
-0.1206241 0.1275622 -0.012671302
0.13958484 0.083924219 -0.068795115
-0.16785848 -0.092584483 0.0093785655
-0.0097881258 0.13063726 -0.061565921
-0.049565971 0.091753729 -0.11354217
-0.1886175 0.058266394 -0.052348144
-0.083036244 -0.10281277 -0.096761487
0.017877907 -0.064449549 -0.1258837
-0.029134005 -0.11397412 -0.0907887
0.20520833 -0.057758979 0.036548406
0.11826276 0.06322062 0.097055979
-0.085798562 0.087860756 -0.11092294
-0.071467996 -0.13405511 0.050666217
-0.080852628 0.10056014 -0.099962063
-0.064148962 -0.1190113 0.080812186
-0.042973384 0.10370413 0.10073414
-0.023524672 0.14262161 0.024926595
-0.019936234 0.11214571 0.091051005
-0.17165366 0.032279905 -0.084145635
-0.12249655 0.12570037 0.019435644
0.0042444021 -0.094485097 -0.10738654
0.044526085 -0.0045757387 -0.13677539
-0.083359748 0.010123188 0.14003995
-0.11818647 -0.01208837 -0.12929581
0.016498417 -0.12315343 0.068106249
0.11254716 0.099910207 0.062567189
0.037311673 -0.049324788 0.12905194
-0.15691227 -0.018858861 0.10118016
0.022687018 -0.080853909 -0.11535174
0.043599814 0.04438768 -0.1300309
-0.12080178 0.07803984 -0.10273486
-0.1545935 0.050998773 -0.092930086
0.15121391 0.04514017 0.092396475
0.20538607 -0.056786843 -0.046853915
0.20537257 -0.030337989 0.00092730578
0.065274969 -0.049774624 0.12309246
0.1579013 -0.0088347076 -0.10002708
-0.19377708 -0.058021713 -0.054945104
-0.11235249 -0.11987758 0.054660816
0.017882809 -0.027829763 0.13765013
0.12007135 -0.11235026 -0.028526947
0.066205531 -5.6475401e-05 -0.13215573
-0.13079584 0.039680455 0.11518437
-0.059980243 0.015892666 -0.14520669
0.18017115 0.046713792 -0.075613476
-0.15673292 0.083076447 -0.063722432
-0.075054616 -0.14244743 -0.00076473155
-0.031553715 0.12382953 -0.075438038
0.15931462 0.0082638972 -0.099591762
0.064844176 -0.079832301 -0.10671992
0.10419965 0.10262214 0.063654117
-0.15158245 -0.10195782 -0.037149455
0.10325129 0.015815588 0.1208574
-0.060514629 0.11996518 0.080854803
-0.12746224 -0.10397539 0.067186728
0.016502589 0.029298984 0.13756193
0.09667626 -0.04145411 -0.11692251
-0.19838041 -0.073640704 0.020154197
-0.031602681 -0.057748064 -0.13446553
-0.087178975 -0.13263908 -0.046203583
-0.10631931 0.081259154 0.10685929
-0.10251871 -0.089198545 -0.10286283
-0.027268872 0.097839564 -0.10710358
-0.082518488 0.12684359 -0.063156657
-0.19395423 -0.081691399 -0.0073029147
-0.04172568 0.12430823 0.074112482
0.047415137 0.1148586 0.072053984
0.065010533 0.011763131 0.13149497
0.15873638 0.028750811 -0.095482983
-0.030258611 -0.14441878 0.015464383
-0.10277435 -0.084660947 0.10569964
0.10093194 -0.12010866 -0.024435859
-0.13185593 -0.00093866186 0.12095015
-0.091273576 0.071724981 0.11831885
-0.19851047 -0.014951378 -0.076669097
0.11410554 -0.095904559 0.069085926
0.073090151 0.082995757 0.10040467
-0.097484916 -0.095311619 0.097582407
-0.064908773 -0.094553217 -0.10954689
0.040277585 -0.13445611 -0.028904837
-0.14217463 0.097440779 0.060906328
0.007938832 -0.1053951 -0.09562061
-0.10782966 -0.071898699 0.11176635
-0.09988597 0.12721382 -0.051764712
0.1236584 -0.030287845 0.10995455
0.16787481 -0.031806856 -0.090332352
-0.13754779 -0.087983727 -0.079333998
-0.091268718 0.13218652 -0.043654487
-0.049565554 -0.071057774 -0.12681299
-0.030204087 -0.025016516 0.14232498
-0.086180955 -0.05783673 -0.12914152
0.097512715 -0.10023126 -0.073777847
-0.10130748 0.06901104 -0.1176136
-0.12988198 -0.044980701 -0.11546731
0.10833354 0.11635455 -0.027642317
-0.074378282 -0.12841733 0.062293559
-0.024812788 0.13284561 0.058089864
-0.057098329 -0.1442668 0.016313557
-0.089660197 -0.13035411 0.050232358
0.2056458 0.031901512 -0.032361098
0.018463567 -0.1165653 -0.080249503
0.078977138 0.012979701 0.12795258
0.072156429 0.0031349482 -0.13066439
-0.19124404 0.04080721 0.060852535
-0.10694665 0.11661984 0.064748324
0.13721175 0.09769953 -0.048373334
-0.092686623 -0.13175128 0.041758291
0.06379804 0.12341307 0.049850173
0.028003097 0.13871217 -0.020870961
0.056923434 0.046393599 -0.12663065
0.075787738 0.01857958 0.12858589
-0.055093259 -0.13353631 0.057611011
0.18568426 -0.060030788 0.061940819
-0.084548444 -0.078592308 0.11632899
-0.0097228587 -0.12813975 -0.065431602
-0.029865637 -0.049344696 0.13609102
-0.08367604 -0.028854126 -0.13856973
-0.10147735 -0.13550551 -0.017998803
-0.15435886 0.10249628 0.025336608
-0.18403634 -0.067744911 0.028338749
0.20535251 -0.040378381 -0.0051829396
0.20533982 -0.0015606191 0.061543286
0.0080729872 0.067455843 0.12434202
-0.082350582 0.068252645 -0.12399524
0.020188957 0.046873301 0.13218381
0.12637168 -0.069855154 0.090150855
0.05430299 -0.06286782 -0.11943147
-0.10204238 0.12417801 0.055263866
-0.043191656 -0.14182858 0.030089859
0.042100623 0.0066206427 -0.13741679
-0.016472459 -0.094463088 -0.109837
0.055797711 -0.11323029 -0.072815202
-0.10548019 0.10102361 -0.089565434
0.0022377968 0.061554044 -0.12935051
-0.037164196 0.05091681 -0.13701351
-0.015731096 0.12939185 -0.064508021
0.10589217 -0.038770631 0.11421461
0.14764351 -0.06524469 0.082606956
-0.12011051 -0.12014109 -0.046260282
-0.12127057 -0.098539434 0.080919504
-0.11627439 0.12977949 -0.0089594685
-0.056080431 -0.084102623 -0.11876725
-0.053440452 0.020748103 -0.14466301
-0.070876002 -0.10639919 -0.096345209
-0.046036154 0.032466937 0.14091381
-0.17151201 -0.010990583 0.088346183
0.2054324 0.046332169 -0.05871487
0.0033480078 0.095907211 0.10498935
0.012111083 0.00092712976 -0.14187047
0.077755824 0.11935464 -0.051006284
-0.050864488 -0.031014463 0.14094007
-0.078060538 0.02672736 -0.14023119
0.20539024 0.017132694 0.066657156
0.040008008 -0.020465251 -0.1372788
0.089764789 0.10531015 0.067876309
0.035722807 -0.13608181 -0.025437381
0.14120331 -0.06436868 0.086784862
-0.12676761 0.10648792 0.064265937
-0.011218369 -0.012067934 -0.14400493
0.20546338 -0.00079190079 0.0037072902
-0.2022495 0.014301477 -0.074597687
-0.015336707 0.073653944 -0.12420432
0.19846275 0.032429289 -0.071897395
0.0063604265 -0.089223549 0.11090425
0.049990654 -0.079575449 0.11003572
0.023358881 0.0021725548 -0.14042208
-0.10847491 -0.018367797 0.13191162
0.070328027 -0.11488134 0.062376715
-0.023326755 -0.10620128 -0.098484673
0.067162007 0.010555351 -0.13203841
0.15643592 -0.072193213 -0.070682347
-0.052042693 0.0083600003 0.14409351
-0.12767074 0.080436647 0.094714582
0.16434138 -0.070040971 0.067267165
0.079317003 0.096739545 0.084098063
0.0097205043 0.022768699 -0.14084846
0.097482145 0.057554916 0.10847857
0.18219942 -0.023872305 0.084473826
-0.12621155 -0.038992643 -0.11924106
-0.054646283 -0.14467572 -0.010232919
0.20529506 -0.05884102 -0.0065757399
0.14714777 0.081883386 -0.066446617
0.082080372 -0.1279611 -0.0039067129
-0.063264281 -0.13264021 -0.058489855
-0.17327291 0.011983437 0.086196005
0.046996519 -0.13604374 -0.0046344511
0.20538473 0.011442795 0.060400873
0.044276416 -0.11322257 0.07628186
0.15696004 0.096933149 -0.024550181
0.20536877 -0.043762837 -0.018239591
0.095804363 0.091623284 0.082506388
0.11161264 -0.070369601 0.096214592
-0.066110998 -0.063596189 -0.1298718
0.15107687 0.09829659 0.029539067
0.19328274 0.065820947 -0.048422515
-0.13900325 0.10797919 -0.048434023
0.1356793 -0.10973583 0.011532151
0.16783589 -0.076849893 -0.058306415
-0.062179953 -0.024748016 -0.14336559
0.11969356 0.10127652 -0.055729501
-0.040646881 -0.13265003 -0.060107674
0.19163783 -0.07458023 0.036962535
-0.13953266 0.11025153 -0.040621694
-0.20215005 0.080959626 -0.017943777
0.066052943 -0.017702222 0.1311204
-0.079632878 0.12046169 -0.075121388
-0.080126375 0.12958543 0.057687867
-0.034187719 -0.024727412 -0.14391483
0.10995062 0.017280951 0.11840344
0.042815566 0.097416274 0.095360249
0.026170969 0.091218419 0.10560819
0.082650356 -0.12770875 0.0053394823
0.069747686 0.11163632 0.067634456
-0.16568854 -0.090473868 -0.030031916
-0.063294649 0.14407037 -0.0072267284
0.20543566 -0.012806837 -0.0018235861
0.046076313 0.1170598 -0.069560327
0.087368362 0.11842592 0.044906497
0.20524429 -0.075493529 -0.0083453348
0.10400856 0.0047979709 -0.12154918
0.1398851 0.088753127 0.061103143
-0.11042365 0.027385402 -0.13008626
-0.0035799444 0.075956859 -0.12194388
0.13825002 0.10818796 0.0089254491
-0.13412648 -0.11174924 0.045408051
-0.1476877 0.060397245 -0.093951575
-0.096329927 0.039973401 0.13078377
-0.08720234 -0.10518799 -0.093050502
-0.19758031 0.032296196 -0.067539141
-0.16175923 0.013507687 -0.099538244
-0.20238569 -0.027068201 -0.074164093
0.19616595 0.032330073 0.073337808
0.088889435 -0.090586752 0.087115236
0.0081038326 -0.1337249 0.048000742
0.056821629 -0.12555614 -0.050251029
0.18650977 -0.084640205 0.016802046
0.069056943 0.04185972 0.12386227
-0.17390886 0.086497888 0.0092874691
0.082124151 0.056490958 0.11439699
-0.19552571 -0.0075219809 -0.083481178
0.18374422 -0.087628134 -0.0063651567
0.1615642 0.076091655 -0.062737301
0.084523827 0.0066565573 0.12660052
0.2053777 -0.0025649369 0.041875958
-0.03363134 0.13370343 -0.05888094
0.080281094 0.11700056 0.052605707
0.16231462 0.097287521 -0.011003213
0.094905786 -0.11011469 0.057279538
-0.13932261 -0.11689534 -0.010988983
-0.061891526 -0.13886525 -0.039431736
0.0097230077 0.086459391 0.11287592
0.045528591 -0.10575452 -0.087163404
-0.18064925 -0.051013298 0.058107145
0.025303915 0.10529912 -0.092679061
0.015807644 -0.10052223 0.098400898
0.17333412 -0.091775753 -0.016134638
-0.113646 0.076536059 0.10624804
0.076014757 -0.054683395 0.11723601
0.082671627 -0.091303006 0.088934295
-0.0070016533 0.12391561 -0.072517119
0.1471058 -0.060498342 0.086195782
0.062225133 0.1303805 0.024685543
-0.19164082 0.070439443 -0.024400525
0.12286673 0.087548763 -0.074567623
-0.029150471 0.14231527 0.026769537
0.11806659 0.011116806 -0.11670616
-0.12345117 -0.0093921544 -0.12668531
-0.089833409 0.091101214 0.10553944
-0.026509255 -0.14408165 0.020872694
0.12565699 -0.097651564 -0.058922827
0.13503107 0.088223241 0.066076256
0.20551173 0.037796624 0.040906373
-0.046570659 0.14489736 -0.015486373
-0.069221944 0.07868509 0.11940698
-0.19440082 -0.030571176 0.076445289
0.064540371 0.13180806 0.01695466
0.054703474 0.13178514 -0.027152538
0.0079487562 -0.012292102 0.14146924
-0.19712493 0.073749661 0.024362184
0.17750217 -0.0032875109 -0.09043204
0.091356143 0.11270335 0.053771827
0.1839589 -0.065770015 0.057560291
0.038251713 -0.085519902 0.10838006
0.088196181 0.056179106 -0.11314124
0.1610214 -0.04062365 -0.090882212
-0.079804629 0.12632456 0.063635856
-0.11285904 0.11391498 0.064750277
0.10469104 -0.10649809 0.057631396
0.20540763 -0.021215465 -0.001573788
0.048289642 -0.085140683 -0.1074656
0.20330687 -0.066185743 0.038066048
0.18933621 0.070466235 -0.045079675
0.060765505 0.095073752 -0.093304068
0.01405403 -0.012065172 0.14078401
0.17669962 0.0026330873 -0.090925701
0.16508406 -0.092870846 -0.028674081
0.12715128 0.094076052 0.062252216
-0.021249175 0.10898891 -0.095820151
0.003719911 -0.053491928 0.13269834
-0.15994442 0.06388633 -0.079157025
0.14407375 -0.091166429 0.05466387
0.19551721 -0.00702886 -0.080495253
-0.19630632 -0.044407815 -0.059829801
-0.11037728 -0.1119758 -0.070979148
0.11890517 -0.077605836 -0.087125689
0.1320349 0.10206996 0.044026345
-0.15820926 0.10001469 -0.023095034
0.20562018 0.0045609828 -0.062845573
0.068045259 0.057357997 0.11805096
0.16497126 -0.060778659 0.075928554
-0.0028448403 0.14119212 0.02460574
0.13119158 0.10822905 -0.025417417
-0.16642088 0.005876597 0.093635917
0.20347078 -0.041714169 -0.063907333
0.079256058 0.081428707 0.099750206
-0.10825354 -0.10586162 0.081581317
0.14455849 0.028742384 -0.10212921
-0.066313893 -0.115035 0.086964436
-0.13387153 0.11614353 0.031262357
-0.17703262 0.076404996 0.031679153
0.010634899 0.032034848 0.13748394
0.18738583 0.054318622 0.065393575
0.033149123 -0.097506799 0.097772516
-0.060516149 -0.13689302 -0.04768461
0.022518173 -0.12156151 0.069183871
0.035271004 0.12430222 0.059844647
0.20570308 0.038295854 -0.049736753
0.20552096 0.02660754 0.019009151
0.10351488 -0.095181376 -0.076752834
-0.0095759928 0.07684318 -0.12193804
-0.1282025 -0.12351312 0.010533836
-0.0090174377 -0.064956099 -0.12878881
0.11839521 0.10865287 -0.041792821
-0.13421527 -0.015983474 0.11919016
0.13103244 0.014741872 0.11094266
0.08362253 -0.12306067 -0.033848889
0.1269826 0.056482255 -0.098054051
0.18700074 -0.049299289 0.070229307
-0.16699252 0.091022879 -0.023792595
0.018022135 0.043431573 -0.13456695
-0.12138772 0.10802866 0.067031175
0.10298642 -0.12119555 -0.017670592
0.20553319 0.046248779 0.043856539
-0.18111619 0.074115686 -0.0049603698
0.088404313 0.018349376 -0.12554576
-0.12578461 0.057786562 -0.11159671
0.057191893 -0.067349285 0.11523627
0.079284072 -0.08285033 0.098390922
0.1574526 0.095388338 0.028982121
-0.10488901 -0.1344427 -0.01239996
0.16171211 0.090843521 -0.038131751
-0.17321607 -0.081148602 0.031980492
0.20548643 0.0097908601 0.0092295585
-0.18407685 -0.036417633 -0.064561956
-0.031336308 0.064723685 0.1292614
0.053172812 0.018632391 0.13395323
0.084159732 -0.03017796 -0.12403931
0.083388083 -0.049440302 0.11806197
-0.13325769 0.068349883 -0.10066969
0.19928636 -0.046019413 -0.064148724
0.031171396 0.13357496 0.036448658
0.10178468 -0.0078408439 -0.12207479
-0.025810435 0.1302529 -0.064297177
0.05694364 -0.13099155 0.028563086
-0.098610073 -0.061281033 0.12155007
0.013572961 -0.14111507 0.011928454
-0.18017793 0.078625105 -0.001029233
0.11265957 -0.063806064 0.099490546
-0.018784776 0.067729458 -0.12781855
-0.16082716 -0.008610934 -0.10047508
0.094665639 0.10521768 -0.065561846
0.17801416 -0.076262802 -0.049080867
0.20551559 -0.028566619 -0.064645067
0.018193245 0.064503476 0.12475155
-0.10155779 0.12100635 -0.062758207
-0.10984576 -0.013232269 -0.13290104
0.14532216 0.048990674 0.093183532
0.071397871 -0.12000079 -0.053376876
0.01284869 -0.14095134 0.020274274
0.08454369 -0.041624825 -0.1207195
-0.076294094 -0.10359684 -0.098041281
-0.069013745 -0.076479979 -0.12181664
0.089464754 -0.013214817 0.12531441
0.1289306 -0.013802242 -0.11239705
-0.03268905 -0.069459386 0.126348
0.17711079 0.060778581 0.066488795
-0.19478944 -0.048394751 0.054211196
0.082903489 -0.096861742 0.083415747
0.20540978 0.016828023 0.056847803
0.13999048 0.038055535 0.1008658
-0.12174499 0.0082456302 0.12631813
0.050515741 -0.013613353 -0.13541408
-0.037704542 -0.072607957 0.12468787
-0.0045007467 -0.065166578 0.12708057
0.20530368 -0.052538633 -0.000849857
0.19278052 -0.077213258 -0.031044059
0.062106788 -0.11019576 0.074288785
0.032785982 0.10302884 -0.093181975
-0.17697152 -0.030373504 0.076630607
-0.02129516 -0.14198092 -0.027608603
-0.16883764 -0.09170799 -0.012083927
0.038929731 0.089382984 0.10454597
-0.17510501 0.072568759 0.0434682
0.011384353 -0.076343648 0.1188689
0.1907144 -0.083781555 -0.0061532171
-0.14885876 -0.10695032 -0.025908083
0.007640034 -0.14053005 0.023903996
-0.13978428 -0.093403339 -0.071850076
-0.123871 0.035808105 -0.12148358
0.0069084913 0.10111199 0.099086113
0.20136096 0.058565795 0.049559876
0.14259101 -0.0073859459 -0.10689493
-0.1204828 0.061635464 -0.11246459
0.16252698 -0.012585541 -0.097838134
0.070876196 -0.0594729 -0.11702056
-0.0063063055 0.098829061 0.10331883
-0.084356189 -0.089508764 0.10831805
0.080828041 0.10724657 0.069627158
-0.028196141 -0.14450233 0.004549976
-0.13625574 0.070006706 0.09607178
0.19861174 -0.066911221 0.042097524
-0.12226999 -0.0020164466 -0.12734781
-0.024151161 -0.011208249 -0.14491889
0.17366502 0.065521561 -0.064684168
0.19518583 -0.0084247477 0.080494739
-0.079885364 -0.053842422 0.13140485
-0.16847101 0.050504394 0.07668601
0.0090337843 0.1329145 -0.051212579
0.16610999 -0.041823059 -0.087442279
-0.16049746 -0.094717652 0.032116409
-0.041575313 -0.050721005 -0.13681509
0.20527959 -0.067340255 -0.012470386
-0.0085187554 -0.13012487 0.061229222
0.090498172 0.12082177 -0.03249988
-0.016229823 -0.11081659 0.092411041
-0.15115118 -0.10817762 -0.0014873416
0.20560063 0.05695869 0.02837212
0.13105461 -0.086505085 0.071227819
0.021455631 -0.11269469 0.084474169
-0.20218301 0.073521443 -0.013824687
-0.036071718 -0.11523838 0.088830382
0.16064207 0.098168373 -0.00090730144
-0.091247648 0.1390855 0.01292221
-0.10323724 -0.013721799 -0.13553062
-0.044877857 -0.14476547 0.0098795202
0.019503132 0.10777489 -0.091545783
0.049665302 0.048850149 -0.12757678
0.15698904 0.070872895 0.070281722
-0.18914321 0.0660256 -0.034825694
-0.021526754 -0.14409445 0.015879557
0.053338408 0.11632753 -0.067788407
-0.12876806 0.073342845 -0.10099961
0.20529202 -0.025770783 0.046547268
0.20530893 -0.011838352 0.06024044
-0.19046822 -0.065938793 0.038240518
0.15580799 0.062900327 -0.079365112
0.14651495 0.035523608 -0.099574767
0.0059365928 -0.071363956 0.12236121
0.19736956 0.039979897 0.068024203
0.027882665 -0.074794129 -0.11797884
-0.03245683 -0.14212154 0.028288968
-0.20212865 0.06721691 -0.049647946
-0.10741195 0.12877354 -0.035836555
-0.1072866 0.09244103 -0.096960098
0.0039238781 0.11605427 0.083340734
0.13090695 0.083881132 -0.073819764
-0.18066275 0.078109719 0.0049384013
-0.13214719 0.03504394 -0.11692264
-0.15347895 0.0098333731 -0.10707079
-0.15153879 -0.039610356 0.10073712
-0.13522652 -0.080135167 0.087968498
-0.16911942 0.086390935 -0.03211464
-0.053259701 0.13640992 0.050414968
-0.14491895 -0.074069612 -0.086227126
0.16311677 -0.047191571 -0.085852295
-0.01043494 -0.11325894 -0.090021446
-0.055813104 -0.14470735 -0.017825089
0.066968903 -0.036994889 -0.12669639
0.049809888 -0.13521159 0.0175246
0.11178894 -0.04087254 -0.11197466
-0.048173338 -0.12612441 -0.071832776
-0.040079102 0.015148189 -0.1456123
-0.016511321 0.12442166 -0.073007196
0.028586149 -0.0014675912 -0.1395309
-0.16618454 -0.0021330724 0.094001748
-0.053504318 0.14245926 0.026724841
0.17569582 0.072595552 0.055495463
-0.089448422 -0.12738791 -0.058267917
0.11406973 -0.011069565 -0.11785518
0.0098156184 -0.052318327 -0.13291864
-0.1089448 -0.099802501 -0.08836019
0.1390321 0.031013824 0.10322941
-0.033458248 0.04328379 0.1376038
0.0045141429 -0.1184539 0.078623429
0.1605359 -0.039570611 0.09095677
0.17461696 0.079614632 0.044510461
0.041075602 -0.010369944 -0.13739923
0.20562673 0.020501858 -0.041066449
-0.097933173 -0.12984242 -0.044443395
-0.10671306 0.13325495 0.018245906
-0.096180439 -0.033017084 -0.13391447
-0.20266378 -0.015979495 0.076057389
-0.04884246 0.13505395 0.054998424
0.065817669 0.037069861 -0.12696551
-0.14421147 0.09332104 0.065201811
-0.15954071 -0.03491357 0.094711535
-0.0034198165 -0.096141301 0.10560776
0.052031651 -0.085728198 0.10443664
-0.0072133839 -0.13349456 0.054335911
-0.10348746 -0.007334257 -0.1354945
-0.012950286 0.10158242 -0.10222552
-0.13395146 -0.059040464 0.1040662
0.060618162 0.12905364 0.031214871
0.066308722 0.071701616 -0.11109953
0.0037578344 0.0061902255 0.14173636
-0.032625645 -0.13028707 0.063304134
0.036575645 -0.091247387 0.1031451
0.05604358 -0.088795155 0.1002971
-0.056096315 0.12429067 -0.074629925
0.11781021 0.11317529 -0.02639892
-0.011723325 0.12669411 -0.068494864
-0.017056525 0.12115887 0.077825107
0.011804938 0.071713522 0.12132856
0.10709407 -0.12008293 0.017294321
0.15885237 -0.0062224804 0.099250004
-0.18644875 0.049022809 -0.061374087
0.030513436 -0.099642076 -0.097131088
0.20088236 0.063833565 0.043001693
0.13805899 -0.096778646 -0.050281473
0.20557311 0.037364088 0.010902515
0.20556439 0.012809237 -0.023301564
0.19759862 -0.021289438 -0.076613888
-0.068037331 -0.14319295 0.015068226
0.13073125 -0.11168867 0.014722499
-0.097137749 0.10457955 0.088535622
-0.17385298 0.079277404 -0.036325406
0.14114705 0.10568738 0.017997745
0.10627002 0.012185801 -0.12092588
0.016216442 -0.091519259 0.10714189
0.096075699 0.0067792954 -0.1240021
-0.094740927 -0.0084365224 0.13727425
0.20564011 0.04858017 -0.0035827467
0.097101651 -0.095544651 -0.079162493
0.10682938 0.12008458 0.013276766
0.16942985 -0.08978872 -0.032077793
0.032585353 0.062106259 0.12356909
0.20539072 -0.012064527 0.020805884
-0.16938081 0.0066315476 -0.091939822
-0.14926952 0.078981556 -0.077005357
-0.13223541 -0.097324014 0.072890379
-0.13754377 0.098707274 -0.065825626
0.17159113 0.012321383 0.092957966
0.014516577 -0.10353762 -0.096458234
-0.027431726 -0.10372356 0.10019249
0.053340212 -0.13458371 0.0097398991
-0.19346458 0.020925354 -0.080892362
-0.1017704 -0.025867406 0.13270561
-0.13638857 -0.1141069 0.031753078
0.046474725 0.12827449 -0.046140458
0.14214945 -0.045216456 0.097138025
0.16689472 0.072897293 0.061692655
-0.12774226 -0.10278733 -0.07052049
0.14524189 0.011919409 -0.10605512
0.099635892 -0.022592902 0.12034804
-0.20273623 -0.057753388 0.045398857
-0.088100642 -0.13051684 -0.053389274
-0.12140217 0.12727931 -0.0040916633
-0.18380219 -0.00089706434 0.072782494
0.17831236 0.052942596 -0.073228665
0.11061634 -0.030672127 0.11458284
-0.0993779 -0.085708573 -0.1078124
-0.19389117 -0.075829655 -0.028273791
0.20536457 -0.050088357 -0.026112918
-0.041168422 -0.021919856 -0.14487408
-0.19931117 -0.0079346066 -0.074442893
0.017476887 0.14076591 0.0071510365
-0.14898264 0.065375246 0.088473067
-0.0018587261 -0.05091691 0.13399751
0.052933156 -0.021333367 0.13311826
0.018086374 0.037920527 0.13496576
0.18540043 0.082941219 -0.021664489
-0.09413597 -0.13461411 0.029856831
-0.06432122 -0.067178145 0.12671669
0.039700717 0.13321771 0.032249037
-0.15353107 0.089963019 0.056604043
0.056450859 0.11211339 -0.073612347
0.1908825 0.01830595 -0.081108131
0.042192593 0.13425159 0.026511751
-0.072366655 0.10265984 -0.1001845
-0.075354159 -0.048488475 -0.13493478
-0.1947763 0.080575168 -0.021776743
0.16548955 -0.096315682 -0.014387671
0.20525812 -0.06965097 -0.0058192993
0.026173458 -0.064339451 -0.12450042
0.013864204 -0.093290068 -0.10705405
-0.13349539 -0.12043139 -0.0035804466
-0.056691527 0.042552758 -0.13894805
0.023593679 0.12297761 -0.067189775
-0.1623325 0.074160315 0.064680532
-0.076941311 0.12668552 -0.065731168
0.088189214 -0.075052157 -0.1024183
-0.0035479814 -0.11954688 0.07845588
0.13122894 -0.060929377 0.093328081
-0.13574302 -0.1136646 -0.036434427
0.066885546 0.087591372 0.097981639
0.20544569 0.014614288 0.036229409
-0.13274404 0.098536462 -0.071853407
-0.041132554 -0.14336446 0.024461735
0.025482744 -0.070156924 -0.12117748
0.044009596 -0.090741843 -0.10299085
-0.1732823 0.072798029 -0.048635613
0.16147268 0.097846523 0.0052747005
0.087529011 -0.060084336 -0.11154383
0.19254979 0.073436067 -0.03640293
-0.07166326 0.11634574 -0.084926456
-0.093344003 -0.10271725 -0.093098342
0.024850413 -0.0446174 -0.13303839
-0.055717766 0.14473288 0.0014925662
-0.0087752789 0.13800012 0.038761832
-0.080461562 0.028842971 0.13817608
0.059840262 0.041601557 0.12620887
0.07688354 -0.11987571 -0.050764598
-0.091343552 -0.086495548 -0.11052772
-0.11977065 -0.1279881 -0.016468767
-0.18849194 0.0052100178 0.076222509
-0.080813885 -0.12709558 -0.062681735
-0.13006949 0.028314337 -0.1199674
0.20523655 -0.027792482 0.069891751
-0.010328814 0.089863628 0.1128811
0.20539205 -0.0085336082 0.025694743
0.1368967 -0.047598947 0.098221198
0.063399836 -0.10696575 0.079143919
0.11274124 -0.046351809 -0.11008057
0.060032815 -0.00063533243 -0.13357811
-0.17074481 0.060929783 -0.066878818
-0.11873242 0.10698564 -0.072374783
0.12263864 -0.10575625 -0.046644561
0.16098249 -0.079936981 0.058744114
0.039534375 -0.10684489 -0.087698944
0.13978586 -0.040483352 0.10074989
0.020790502 0.098569766 0.099336937
-0.19400868 -0.060804632 0.05135468
-0.093269438 -0.13815369 -0.017865147
-0.042461872 0.084621936 0.11776599
-0.15885839 -0.089769959 -0.048091039
0.20555557 0.0027292054 -0.034837604
0.14325058 -0.10540448 0.019430593
-0.047810078 0.076383658 0.12268038
0.20549859 0.0091381893 0.0023975177
-0.068231285 -0.14287695 -0.020448416
0.19513142 0.022399059 -0.077526301
0.0056186914 -0.11423542 -0.086946122
-0.087005645 -0.12122278 -0.070369855
-0.19664183 -0.018197995 0.070303336
-0.16190726 0.061703019 0.077875398
-0.17545962 0.014262725 -0.084041499
0.024977148 0.0024412312 0.13914436
0.17039536 0.085001744 0.039427105
0.045640528 0.097200572 -0.095688194
0.090441398 -0.027061963 -0.12294701
-0.0025742352 -0.056889217 -0.13305973
-0.072131723 0.032962255 0.13863176
0.081669278 -0.0038290396 -0.12813416
0.074032694 -0.12931266 -0.01912266
-0.080922931 0.14144075 0.0047046649
-0.17741707 0.0050415592 0.081136271
0.029992461 -0.11074588 0.085147947
0.20568167 0.042358939 -0.03316351
-0.022935092 -0.017994914 0.14389108
0.20540389 -0.00055860076 0.032494001
0.14272636 -0.03506998 0.10091788
0.045018554 0.12859122 0.046190474
-0.19317931 0.029589988 0.067446046
-0.0028932244 -0.12654009 0.066570409
0.19749627 0.07488057 0.024692561
0.14791456 0.076240167 0.070789233
-0.18140358 0.075796053 0.016197447
-0.031192437 0.1371267 -0.047474593
-0.080869198 -0.0067666685 0.14078324
-0.051915228 -0.10336314 -0.10185295
-0.14340311 -0.11030613 -0.029129934
-0.026441842 0.10235052 0.10156127
0.025595233 0.13368513 -0.04029749
0.13858333 -0.092464522 -0.057543859
-0.16811791 -0.015749805 0.090819739
0.12886322 0.061601438 0.093500882
-0.048404753 0.092740774 0.11193597
0.050749257 0.04127156 -0.12927672
-0.082281351 0.13485719 0.04149865
0.11039936 -0.1042388 0.057564531
-0.097517222 0.13491024 0.024857141
0.092691965 -0.0041073891 -0.1249043
0.18628295 -0.027804913 0.081288218
-0.012712538 0.034311078 0.13909484
0.087812431 0.10091844 -0.076961607
0.14628239 -0.039984345 0.098175123
0.17974158 0.0074912477 -0.089408986
0.11297395 0.11711867 0.016984235
0.031781137 0.029635753 0.13508703
-0.04044424 0.12823075 -0.068472974
0.0885287 -0.11727841 0.048277047
-0.093659818 -0.13804531 -0.0055965763
-0.19401506 -0.070520461 0.039225608
-0.20227709 0.074840777 0.033191759
0.10691766 -0.0075801522 0.11990903
0.1423265 0.062049024 -0.087709159
-0.048129439 -0.1450088 -0.013402061
0.13860966 0.0299627 -0.10433273
-0.18982196 0.059503742 -0.045838498
-0.13443816 -0.10968861 -0.050071992
0.20543301 0.020541906 0.051557004
0.11939472 -0.021827076 -0.11452681
0.086244099 0.11613964 0.050860599
-0.16504049 0.049001452 0.081760496
-0.11653575 0.0089580473 0.12894453
-0.008869946 -0.059526045 -0.13199629
-0.079177737 -0.11261706 -0.087940514
-0.14739379 0.055231601 -0.097113542
0.16841523 -0.08491803 -0.043731574
0.10301309 0.12125432 0.0085787661
0.18879215 -0.036891043 0.076050125
0.18997 -0.058946855 -0.060023118
-0.068068504 -0.0034353882 0.14290917
-0.14598423 -0.092856281 0.062439889
-0.14967954 -0.099826537 -0.046107434
-0.19109714 0.0014416259 -0.078050323
0.090111323 0.11280744 -0.055503696
-0.060247004 0.048614342 0.13578415
0.17916647 -0.081002399 -0.039405704
-0.03682524 0.13077234 0.062376119
-0.048240274 -0.10798405 -0.097355463
0.032972649 0.10238101 0.092639014
-0.1075995 -0.10924015 -0.078106441
-0.13748035 0.11308835 -0.035149146
-0.046632051 -0.032394741 -0.14204614
0.13951305 -0.10378423 0.030766971
0.087832719 0.035153955 -0.12144105
-0.17931867 -0.073982 0.029262926
-0.19525945 -0.03835227 0.061693132
0.13629308 -0.10053286 0.044989116
-0.022532001 0.0097756702 -0.14505069
0.055493817 0.05057174 0.1246331
-0.13104653 0.012889281 -0.12275412
0.19152394 -0.0012744647 0.082526274
0.041782767 -0.11337762 -0.078425854
0.040978625 -0.063924871 0.12095002
0.0033640563 0.12171912 -0.074300483
-0.16468745 0.082925461 0.048343748
0.014241979 0.13564733 -0.039176643
0.022749379 -0.0034293858 0.13955955
-0.012918651 0.10577118 -0.098127492
0.12418257 0.042459533 -0.10709371
0.053312629 -0.13319716 -0.023217253
-0.10091135 0.025856651 0.13329475
0.062637612 -0.098903172 0.088530935
-0.063540637 0.14418037 0.0049592247
-0.13056129 0.047728088 -0.11418702
-0.091868788 0.0074967053 -0.13930446
-0.0059795827 0.13679186 -0.043198708
-0.072852194 -0.0015291749 -0.14342688
-0.072562158 0.12517992 -0.069798373
-0.19338787 0.065404341 -0.048049696
-0.047224045 -0.11190815 0.092689596
0.1121388 0.11795582 -0.0083616599
-0.081459045 0.11200639 0.086843103
0.069834366 0.12845673 0.024523452
-0.18249005 0.010310132 0.076177329
0.20554067 -0.01109807 -0.04932455
0.10872697 0.082455643 -0.086631224
0.048944354 0.042975686 0.12815429
0.13826439 0.072374202 0.080425128
0.18011597 -0.086715706 -0.021905798
0.073630095 0.025017582 -0.12796137
0.10659102 0.075479247 0.094211236
0.0029288977 0.046492267 -0.13560393
-0.096450597 -0.020755541 0.13570383
-0.11540252 0.12589678 0.033051744
0.09478312 0.016336499 -0.12403831
-0.19674549 -0.051576275 -0.052880175
-0.0037601739 -0.067935362 -0.12660527
0.11533564 0.021182438 -0.1157983
-0.0025157779 -0.0047236127 0.14255695
0.085611828 -0.1153696 -0.054137968
0.00025118887 0.015906792 0.14202255
-0.20031172 0.075107075 0.019091863
-0.0026350021 -0.10229818 -0.10048719
-0.11641192 -0.0010360149 0.12913646
0.14941905 0.052629255 0.088936329
-0.017975152 -0.11718816 -0.086031511
0.068178326 0.032609861 0.12667492
0.048314348 -0.12635726 -0.052572027
0.10472876 -0.11669103 -0.033214003
0.18547517 0.053653136 -0.067667782
0.011741415 -0.11706612 0.079406448
-0.010335565 0.14107095 0.0272169
-0.029142156 -0.13559608 -0.053830635
-0.051274687 0.13874914 0.041587554
0.035580859 0.13527636 -0.028537497
0.023669034 0.11835817 0.074230589
0.10368396 0.11766133 0.027762804
-0.11191991 -0.052689172 0.12065166
-0.17675865 -0.077586688 -0.030072387
-0.078158349 0.074181713 -0.12167464
0.018013582 -0.10884889 -0.090455554
-0.035074815 0.14491637 0.0089078462
-0.085039765 -0.11145102 0.086514197
0.073613778 0.057470709 0.11633637
0.13354641 -0.0069019315 -0.11059763
-0.19301182 -0.049593244 -0.059945833
0.20547082 0.0038358765 0.0073830774
-0.12845016 0.12095031 0.025801387
0.1712224 0.039713409 0.084615871
0.013237551 -0.14127623 0.0011470881
0.17960683 0.079340115 0.039730191
-0.16237104 0.035375856 0.091809273
0.15780827 0.07853511 0.061932318
-0.18542755 0.039895251 -0.067254193
-0.1228914 0.041781247 -0.12045215
0.076694176 -0.1257547 0.029876191
-0.1440109 0.083366126 0.076748431
0.12764609 -0.034805715 -0.10776132
0.13505071 -0.0037121549 0.10950315
-0.05404073 0.0057834266 -0.1453335
0.0036903322 -0.14222336 0.010581178
0.019922376 -0.13080442 0.05345735
0.060288444 -0.090238705 -0.098701976
-0.057697386 -0.10365812 -0.10119375
-0.018711865 -0.13887841 0.03786426
0.19691752 0.012360467 -0.079010636
-0.033680484 0.098344356 -0.10684745
0.17198652 -0.037894838 0.085550748
-0.1077323 0.069962859 -0.11421171
-0.079090297 0.08534576 0.11354855
-0.14455917 0.015690368 -0.11350681
0.027712271 -0.12316134 0.06489256
-0.027583718 -0.11680311 0.085876346
-0.040087536 0.095341794 -0.1100201
0.16216616 0.0092933066 0.097581305
-0.19511127 -0.057953171 0.04478104
0.079838008 -0.036316954 -0.12346338
-0.037696227 0.059391409 -0.13333777
-0.10524392 -0.070594497 -0.11477768
0.10287446 -0.12179983 -0.002901535
-0.093077093 -0.047683951 -0.130805
-0.17303175 0.068361305 -0.055988334
0.1505886 -0.044556655 -0.094132252
-0.024448305 0.11530516 -0.089455321
-0.17313963 0.036876265 -0.079975903
0.13000609 -0.094183825 -0.061565951
-0.18012556 -0.037354842 -0.069615036
-0.1348258 0.0069097877 -0.12038527
-0.014814124 0.14371616 -0.014601279
0.070338517 -0.090976797 -0.094474003
-0.00031976402 -0.018089686 0.14223203
-0.19435576 -0.024730086 0.077970676
0.20540556 -0.026953343 -0.009547716
0.015015692 -0.070338905 0.12178753
-0.12097815 0.10344224 0.07563889
-0.088455528 0.13892613 0.020207293
-0.051621199 -0.0729708 0.12443905
-0.10430157 -0.13438956 0.015451583
0.090302177 -0.11927088 -0.040670007
0.19299282 0.037987437 0.072123274
-0.042030424 0.037443236 0.13943091
0.15290113 0.091412574 0.044920798
-0.060135424 -0.057731204 -0.13418701
-0.1612336 0.091728494 0.039589431
-0.051354617 0.10915265 0.094969317
-0.081479132 0.13865972 0.027289938
0.0020334274 0.10582533 -0.096327789
0.091573209 -0.11778667 0.043084241
-0.025340006 0.021605469 -0.14420074
0.20238158 -0.01748462 0.074436262
0.10429322 0.0096185263 0.12060682
0.083540857 -0.018264189 0.12642865
0.13713306 0.060060725 0.090510301
0.10540479 0.08841937 -0.082426772
-0.016589686 -0.11961359 0.079987243
0.17127356 -0.093886793 0.0044434527
0.016211107 -0.0051544728 0.14046745
0.02140297 0.0096424464 0.13963181
-0.15178546 0.00024077762 -0.1084748
0.071644083 -0.074364774 -0.1079497
-0.11066717 0.060564883 -0.11816879
-0.15515053 -0.098671354 0.035589311
0.1669161 0.012047138 -0.095821284
0.20538303 -0.04860352 -0.032617822
-0.059937596 0.14472921 0.015684243
-0.013341308 0.027495224 0.14104569
-0.15555018 -0.051360887 0.090371035
0.090285562 -0.039380416 -0.11953133
0.073638707 -0.12394007 -0.040582318
-0.09503594 0.055657484 -0.12730581
-0.11422649 -0.086640507 -0.098748893
-0.036570683 -0.06456615 -0.1305569
-0.11357042 0.11048531 -0.07121902
0.1266623 0.081081562 0.078295395
-0.080332756 -0.13281442 -0.051519237
-0.12084961 -0.05156175 0.11656467
0.20529602 -0.031919785 0.035023466
0.081452049 -0.10542988 -0.074141361
-0.054901987 0.018131044 0.14385489
-0.16720217 -0.043422174 -0.08349093
-0.027687296 -0.10816462 0.095857076
-0.13071519 0.015524652 0.12143586
0.13932487 0.078372508 0.073691987
0.047938764 -0.11108691 -0.07992588
0.043185875 0.051434711 -0.12822801
-0.027297765 0.0034758616 0.14398678
-0.18920907 0.050375286 -0.055145852
-0.091773748 0.087817326 -0.10875025
0.054603964 -0.081769884 -0.10813922
-0.077728331 -0.13691826 0.036601257
0.035767391 -0.035056666 0.1329602
-0.12178561 0.085990779 0.093248285
0.037163958 0.0028787879 0.13721362
-0.033745602 -0.0046141613 0.14421044
-0.13488296 0.11978015 -0.0031571956
-0.038571477 -0.13048133 0.063195586
0.099779204 0.0060349982 0.12200527
0.11721944 -0.10867324 -0.045345068
-0.064154655 -0.0081797233 -0.14444742
0.080156535 -0.051517379 -0.11899201
-0.075607747 0.11331409 0.087296583
-0.10519841 -0.11957838 -0.061753482
-0.15607214 0.099513084 0.031006526
0.050990596 0.06630639 -0.11798568
0.20556839 0.039754216 0.016890898
0.0036169887 -0.13725206 -0.038356081
-0.058973402 -0.071296223 -0.12621002
0.053685352 -0.10001215 -0.09063869
0.13343871 0.05649931 -0.095006794
-0.00019533932 -0.038863353 0.13689519
-0.0018034577 -0.048947666 -0.13525261
0.065312251 0.13179238 -0.00043318432
0.20557556 0.0044976138 -0.041621801
-0.13522604 -0.060172353 -0.10373244
0.13179874 0.11041211 -0.016682928
-0.062940001 0.10119254 -0.10325273
0.1364174 0.025297314 0.10592029
-0.17905 -0.0019550947 0.079208151
0.085884444 0.10885038 0.064013645
-0.042328462 0.083545104 -0.11989363
0.10421649 0.11892569 -0.023596112
-0.13810125 0.059354976 0.10109578
0.12894708 0.088794202 -0.070067018
-0.043937728 0.14392678 0.0219847
-0.202176 0.078558438 -0.0092680939
0.20562188 0.040420279 -0.0076274043
0.03039664 -0.13781217 -0.022050992
-0.18049186 -0.066265598 0.040227633
-0.16777602 -0.086156547 -0.036788922
0.0021853298 -0.065214984 0.12629646
-0.12888262 0.01839491 -0.12327186
-0.10276127 0.018263971 -0.13557726
0.18153045 0.081748374 0.033435684
-0.13607702 -0.1186642 0.013188605
-0.15435863 -0.016326601 -0.10562616
-0.12320721 0.12279424 0.029418487
-0.058089316 0.10773788 0.096017063
-0.051598638 0.14497089 0.0082784947
0.028161258 0.13217814 0.043870654
0.13792038 -0.095482096 0.052230291
-0.030815497 -0.12710953 -0.069542304
0.074900299 0.086662121 0.096000142
0.13581535 -0.10979002 0.0025337124
-0.13766015 -0.11593945 -0.02285796
-0.039310202 0.06439174 0.12966706
0.0345456 0.0688233 -0.12014809
-0.20097512 0.074114867 -0.038999155
0.057064727 -0.13401973 -0.016895859
0.028831586 -0.12916134 -0.054564293
-0.10390025 -0.11133698 0.075802505
0.0032382309 0.13233829 -0.055800837
-0.1283915 -0.094903052 -0.080336012
-0.20214966 0.068641603 -0.037380584
0.040325016 0.13302284 -0.033703461
-0.11688426 -0.033319589 -0.1256776
-0.1404582 -0.10940545 0.039204609
-0.056583107 -0.053176753 -0.1358031
0.20551385 0.017389381 0.0080058696
0.20530397 -0.0093033426 0.06657055
-0.011682793 -0.067224264 0.1264562
-0.08214128 0.13582766 -0.038833138
-0.057203799 0.081461392 -0.12066619
0.0065388232 0.1248637 0.067074507
0.20523132 -0.074811585 -0.0010826448
0.097270407 0.11437062 -0.047822569
0.1983621 -0.024279242 0.075060874
-0.11619848 -0.039704241 0.12322749
-0.17755932 -0.019630045 -0.07989721
0.20546159 -0.016327538 -0.019717131
-0.1343216 0.11978154 0.01582481
0.11314928 0.010432648 0.11753371
-0.12763289 -0.035002328 0.11844321
-0.0045761913 0.088913508 0.11318986
0.021367386 0.13471481 0.038431901
0.0032711476 0.068784595 -0.12514684
0.10994273 0.057801172 0.10367832
-0.14025113 0.056133978 -0.10262245
-0.026190341 0.14455861 -0.0023972299
-0.004107371 -0.13811871 0.037088338
-0.045953155 -0.039401889 0.13896556
0.13887995 -0.10464402 -0.02931378
-0.036315158 -0.14466476 -0.018963035
0.20533545 -0.059081648 -0.0262588
0.13365372 0.093110822 0.058558851
-0.094322503 0.032337021 0.13357162
0.009743318 -0.081131212 -0.11706864
0.17764702 -0.068799064 -0.059322953
-0.13501737 0.06551908 0.099631831
-0.083045304 0.14064564 -0.020939477
-0.19655001 -0.073082298 -0.0027825388
0.12341087 -0.094265409 0.065465614
-0.19494909 0.045045014 0.058341131
-0.077041596 -0.024571097 0.13978554
-0.14810783 -0.084484369 -0.072266415
-0.017982051 -0.13807991 -0.041989017
0.10230592 0.034251895 0.11631298
-0.066384822 -0.11747328 -0.084605485
-0.10980466 0.13014889 -0.02742032
0.052090466 0.03527116 -0.13051796
-0.028476477 0.1033439 -0.10176694
0.20569748 0.048745472 -0.030732952
-0.039360598 0.13248257 -0.061240152
0.15958147 -0.09572906 -0.027641568
-0.047111213 0.14497007 -0.0072270618
0.069889024 -0.10560993 0.078239843
-0.029060706 0.11109748 0.092704624
-0.099774003 0.067556888 0.11777259
-0.1208584 -0.12454334 -0.027639519
-0.19672769 0.074231833 0.00078157941
0.20549117 -0.035993107 -0.064576007
0.20549776 0.030029353 0.035444722
-0.078995764 0.11660144 0.081305876
-0.062510908 -0.090761401 0.11221743
-0.19001582 -0.076653771 -0.010372069
0.11949532 -0.10625046 0.047926683
