# .PCD v0.7 - Point Cloud Data file format
VERSION 0.7
FIELDS x y z
SIZE 4 4 4
TYPE F F F
COUNT 1 1 1
WIDTH 1294
HEIGHT 1
VIEWPOINT 0 0 0 1 0 0 0
POINTS 1294
DATA ascii
-0.096290872 0.0051163435 -0.092763491
0.042421594 0.023080111 0.096876569
-0.028378353 0.044286549 0.092887335
0.1644803 -0.023836106 0.052145623
0.01000081 0.087740242 -0.053308707
-0.094075277 0.05104655 -0.07834065
-0.051874116 0.089126378 0.048362769
-0.074321285 -0.092592269 -0.031608284
-0.0039346963 0.10280594 0.0067382157
0.098984994 0.05275777 0.067926757
-0.029677212 -0.071537405 -0.074125446
-0.10281681 0.017020851 0.089024834
0.077841818 -0.066805512 0.063690968
0.0090083331 0.10251597 0.0050074905
-0.11350463 0.078518212 0.028457396
0.060316786 -0.030372769 0.091242276
0.056662709 -0.047971576 0.084716447
0.16501765 0.039996982 -0.040558212
0.12018276 -0.069045812 0.037698217
0.042993262 -0.078142792 0.0605193
-0.022486731 -0.076720089 0.069200553
-0.014235497 0.040841401 0.094698928
0.18647164 -0.011569053 -0.026610509
-0.20282142 -0.042941183 -0.01022689
-0.016802177 0.014655381 0.10207853
0.001278013 -0.08354798 0.060072117
-0.055613369 0.055554181 -0.083632246
-0.027560368 0.028118432 -0.099142075
0.17807123 -0.032905489 -0.038157672
-0.076265648 -0.087388128 -0.043290921
-0.13131075 0.041170895 0.043042414
0.0086635202 -0.1009517 -0.016662836
-0.067856386 0.097392946 -0.015360393
0.0049506128 -0.09365502 -0.041502051
-0.055005357 0.063492 0.078074537
-0.052864432 -0.046297878 -0.089659795
-0.076287493 0.044233412 0.087094016
0.054588497 -0.088508159 0.039271437
-0.10191272 0.07492435 0.051371105
-0.13537081 0.045920879 0.027831607
0.054815933 -0.042468876 -0.08674562
0.16924159 0.043694437 0.032846369
-0.083643571 0.086241305 -0.041697487
-0.11764835 0.065671146 -0.044842437
-0.14899157 0.036165029 -0.012414888
-0.059343085 -0.0091303885 0.099817134
0.18864201 0.010723919 0.000337556
0.017036766 0.055025756 -0.085715495
0.021160081 0.10152364 -0.0052464828
0.0010979772 0.099812984 0.027557142
0.022991821 0.098693401 0.026127212
-0.12739702 0.0443483 -0.048154052
-0.037835643 -0.053232461 -0.087676167
0.00024937093 0.0002874434 0.10382367
-0.13229747 0.0091123879 -0.056714226
0.079852343 -0.091302246 -0.0037405938
0.15529048 0.034992665 -0.051204428
-0.048038065 0.021717191 -0.099032938
-0.057568192 0.043320358 0.090640701
-0.07920675 -0.07531473 0.061070047
0.039221376 -0.0993357 0.0061047673
0.019563034 0.080895066 0.061585464
0.037035778 0.097280353 0.024722762
0.016605809 -0.018773764 -0.099888131
-0.063398644 -0.053684264 0.084347405
0.046946168 0.042190731 0.089001738
0.18770248 -0.015562028 -0.014225431
-0.12870596 0.014031351 0.062106766
-0.038432568 -0.041786879 -0.092950746
-0.097139671 0.084356338 0.038106523
0.12291357 -0.012431651 -0.075808853
-0.20666184 0.0074256063 -0.045075506
-0.16160218 -0.031776875 0.0041195005
0.14334716 -0.068063289 -0.0032624304
0.026964456 0.043019831 0.091566734
-0.12645759 -0.06702134 0.0050012544
-0.050760612 0.094242752 0.03629785
-0.055720791 -0.10117212 -0.0010290593
-0.081314936 -0.091957837 -0.029726252
0.064134508 -0.006799072 -0.094467387
0.021140695 -0.07306096 -0.071013309
0.011827648 -0.047637731 0.091073118
0.10552857 -0.080000371 0.025228195
0.04382056 -0.087581664 0.046284132
-0.086897597 0.048782557 -0.082181558
-0.12956987 -0.06204465 -0.0023672953
-0.11409505 -0.055767685 0.062047996
0.094590425 -0.086696953 -0.0071289539
0.066917688 0.058208883 0.074492924
-0.015792295 0.10197335 -0.013192236
0.11855173 0.076470375 0.02220384
-0.037419066 0.025076479 -0.099474803
0.023863539 -0.088621467 0.050484665
-0.15450554 -0.0067513883 0.0341774
-0.20652686 0.045004725 -0.0046904013
0.08854109 0.087555587 0.016413979
-0.070094243 -0.08975324 0.040744461
-0.03287749 0.067299962 0.077588163
0.072596744 -0.026993006 0.089741968
-0.00075742602 0.10342297 0.0015020296
0.078652941 -0.088123411 0.0263777
-0.063044563 -0.089598745 -0.043553293
-0.092577621 0.089113533 0.029985107
-0.091863319 0.047764927 -0.081560209
0.068982132 0.094283789 0.0032522455
0.015622422 -0.081890553 0.060840331
0.058610857 -0.096492499 -0.0015915036
-0.14046226 -0.018624097 0.043513529
0.0019249469 0.05987069 -0.083187699
0.00041744113 -0.067890793 0.077635475
-0.016985133 0.096851796 0.035155706
-0.14476894 -0.0054589212 0.042254947
0.10516477 0.012589484 -0.082403138
-0.11003201 0.079886883 0.032071881
-0.0086461604 -0.081100255 -0.063147023
-0.087867215 -0.0064797401 -0.094740815
0.085326232 -0.074086457 -0.050379604
0.033814639 -0.090241641 -0.043053731
-0.047461748 -0.035242349 -0.094858423
-0.071555302 0.073262095 -0.065293923
0.0044772178 0.078737766 -0.065513127
0.096757546 0.076242179 0.042318143
-0.024893299 0.093190432 0.043567888
0.091845177 -0.072868556 0.049533166
0.015295744 -0.043121547 0.092674859
-0.1257547 -0.065986127 0.019494839
0.043890119 0.075814009 -0.062852748
-0.046177834 0.056793779 0.084419034
0.1348221 0.031378299 0.065507956
-0.018792734 -0.10256973 -0.0090324581
-0.0066225231 0.062905312 -0.081115164
-0.029903337 0.093782037 -0.041082092
0.033214703 0.083378702 0.056001
-0.084236786 -0.081539661 0.051319949
0.068277337 -0.080961496 0.049045257
-0.056209639 -0.089965731 0.045397304
-0.14379273 0.039159983 -0.018351667
-0.051901743 0.1014061 -0.0014801919
0.055336833 -0.052098364 0.0820271
-0.059391752 -0.093148142 0.036689423
-0.18206398 0.021336854 0.024518512
0.16186152 -0.047065645 0.034889586
-0.074227855 0.074918985 0.062802307
-0.01256457 0.092394114 0.046079941
-0.048102066 -0.10209027 0.0010448918
-0.14011426 -0.012734801 0.046399467
0.14679599 0.056159616 0.03664235
-0.03302291 0.064564377 -0.079229876
0.0025774986 0.098349392 -0.030461736
-0.016046003 0.081379741 -0.062663615
0.022411153 -0.024868578 0.099133186
-0.017886266 -0.10363033 -0.00096736848
-0.022738233 0.10065392 0.023078419
-0.076987997 -0.030706853 -0.092276752
0.1275703 0.043981522 0.061597772
-0.15489866 0.0016762316 -0.034327134
0.11171899 -0.080413967 0.012144305
0.13727167 0.070755273 -0.007582128
0.060494184 -0.087057561 0.039872773
0.024267748 -0.0005145669 -0.10161975
-0.02458334 -0.060144573 -0.083140485
0.0075213462 -0.064325243 -0.079393148
0.12043771 0.074012667 0.026217885
0.029849008 0.027062386 0.097827353
0.080843866 0.038432479 0.08282914
0.064465314 -0.027833551 -0.090734765
0.17059642 0.047598362 -0.024838828
-0.20006858 0.023321182 -0.034549452
-0.12587018 0.055634588 0.039629154
-0.0017163604 0.08544451 0.057655178
0.07966765 0.073825479 -0.053406551
-0.096427843 0.071023017 0.059929125
0.031204909 -0.068364292 -0.073648229
-0.05041118 0.082388043 0.058635078
0.053420663 0.018781096 0.095619641
0.055917695 -0.095660478 -0.011887878
0.11211289 -0.079118758 0.020817168
-0.11272533 0.084546357 -0.0012339354
-0.079649314 -0.02411589 -0.094089992
-0.13510992 0.037458301 0.039062701
-0.055751711 -0.033154994 -0.094753742
-0.042328238 -0.050665826 -0.088940069
-0.015950665 0.0045047998 0.10343391
-0.083790347 0.087712795 0.038474999
-0.13549431 -0.011758 -0.051925685
-0.14480831 -0.042839557 0.00096204877
-0.040294379 0.10113648 0.012269095
-0.080923662 -0.08903721 0.037383504
0.021500856 -0.0097664893 -0.10064223
-0.087523773 -0.08702305 0.038695626
-0.030310825 0.023249894 -0.10008594
-0.12372617 -0.055187076 0.0463643
-0.19538538 0.035708129 -0.015458278
0.1879922 -0.0067550838 -0.017416544
-0.083962873 -0.081811041 -0.050650481
-0.15338932 -0.020444065 0.029013805
0.064047128 0.061576545 0.07269185
-0.05835624 0.05826962 -0.081128374
-0.031972304 -0.05840829 -0.084105991
-0.12086375 -0.035545856 0.067608126
-0.15029205 -0.037870318 0.00013059378
0.18024071 0.044184178 0.029246725
-0.073614433 0.019806981 -0.095773935
0.058532238 0.059315354 0.075850137
-0.13561715 0.048636615 -0.020671286
-0.032704473 0.052082628 0.089297168
-0.10138045 -0.041705042 -0.08099138
0.10616777 0.076102525 0.034726672
0.18606114 -0.028325766 0.013684757
-0.076339051 0.09743169 0.0042167604
0.13684873 0.069299966 -0.018823594
-0.12041019 -0.075434178 0.013097242
0.042823136 -0.091573685 -0.036495522
0.093113907 -0.033454508 0.081112631
0.17993066 0.039145947 0.035343729
-0.030118316 -0.083393186 -0.059532661
-0.076669529 -0.0078168213 -0.096823275
-0.14642633 0.012017429 -0.038894475
0.021701649 0.010913163 0.10102526
0.027941436 0.041826427 -0.091389082
0.044781789 -0.0054030716 -0.098264284
-0.033182085 0.092524379 0.044230975
-0.004232049 -0.023806304 0.10082821
-0.12587209 0.017260581 -0.066208869
-0.13879828 0.045343727 -0.018168934
0.14968786 -0.063573688 0.013998814
-0.10431205 -0.0055758953 0.08978907
0.15088333 -0.054265708 -0.034429595
0.18285006 -0.011660665 0.043755896
-0.015204191 -0.10332486 0.0040935278
0.13439912 0.046076983 -0.055555727
0.18047775 -0.051532 0.0071276873
0.14645937 -0.0046146512 0.066960864
0.18678044 0.010766089 -0.025237381
-0.082011864 -0.057401985 -0.077069424
0.092273101 0.029869646 0.082959913
0.13665369 -0.03528437 0.062862597
0.044614673 -0.052582711 0.083981566
0.12185123 0.033110499 0.070673563
-0.081838205 0.028327972 -0.092128292
-0.19058745 -0.033163518 0.017078497
-0.15059538 0.0051977038 -0.036579281
0.13028562 0.035925686 0.065753557
0.085464388 0.06069997 0.066859327
0.18629347 -0.029813677 -0.0041974708
0.18034494 0.037683666 -0.036805272
0.058048666 0.011318326 -0.095138907
0.18822101 0.015399694 0.0053659379
-0.13589419 0.013724715 -0.051071048
-0.032722935 0.056158543 -0.085681528
0.07240589 -0.082539827 -0.043349758
-0.028015703 0.0037906766 0.10321163
-0.16497724 -0.028512508 -0.012805261
-0.1049553 0.031654775 0.083591364
0.12372225 0.073132426 -0.024276137
-0.03740786 0.055043101 -0.086190566
-0.08300142 -0.065806299 0.070767514
-0.067120865 -0.051358491 -0.085034296
-0.005720526 0.013170838 -0.10173958
0.13725342 0.064063638 -0.030974217
0.010572463 0.10267863 -0.0027360693
0.13130051 0.066438764 -0.032142498
0.11644205 -0.044537991 0.066472344
-0.1128345 0.082542747 0.016102888
0.024150476 -0.044636637 -0.09064424
-0.11886077 0.076741099 -0.015715681
0.02000612 -0.077333063 -0.065602481
0.018391445 0.040144086 -0.09307529
0.057130724 0.017963409 -0.094441511
0.017545432 0.034855604 -0.095341451
-0.016651139 0.085997224 0.057113461
-0.00037607551 0.090712667 -0.04909743
-0.1156802 -0.079142839 -0.021894842
-0.089239702 0.010972083 0.094172113
0.0045825988 0.055517852 0.086877905
0.090255223 -0.071368486 -0.051568978
0.076003477 -0.081168383 0.044864722
0.14314352 0.0059018433 -0.067713119
-0.025171831 0.031744361 0.098246388
0.089838751 -0.088919312 -0.00077687949
-0.14338835 0.014122248 0.041708164
-0.077707127 0.011389703 -0.096124083
-0.17109217 -0.02735123 0.014588624
-0.084410325 0.066153526 -0.069555104
-0.09179984 -0.089735061 -0.029255792
-0.15138541 0.018907785 -0.031249352
-0.13927938 -0.043846101 0.021396451
0.15595774 0.028433979 -0.054759335
0.11134521 -0.060479492 -0.054603118
0.030313 0.065666109 0.076454796
0.013557076 -0.065488607 0.078612156
0.066059962 0.086401939 0.038664155
0.040119722 0.048273921 0.087593071
0.086627468 -0.088099033 0.014882199
-0.12758143 0.06325087 -0.017095789
-0.12331845 -0.0092495382 0.072076581
-0.043497249 0.011629611 0.10121971
0.15444019 0.054945171 0.031730004
-0.066356018 0.081073523 0.056915812
-0.0031465292 0.064126968 0.080585681
0.1087092 0.072662145 -0.040056676
-0.15095152 0.0091403723 0.036069043
-0.041427553 -0.058410615 0.083801128
-0.079021737 -0.094911009 0.021378763
0.1803835 0.031018704 -0.041868918
-0.0024919361 -0.042815834 0.093767919
-0.055075154 -0.055184036 0.08457128
0.12424836 -0.048400551 0.059691794
0.15886469 0.012336373 -0.058697082
-0.074821576 0.026228964 -0.094430819
0.073536202 -0.030923277 -0.087248549
0.074852504 -0.084286958 -0.037518546
-0.12768857 -0.027637631 0.059044726
-0.10983963 0.019487411 -0.084206074
0.010442406 0.051055819 0.089713149
0.17839707 -0.044784158 0.024787225
0.069156207 -0.084382743 -0.040779099
0.11016902 0.051587105 0.064169265
0.12716982 -0.021017402 0.0732008
-0.19591396 -0.040058523 0.0021595657
-0.13222991 -0.0444462 0.037253685
-0.16250701 0.023573518 -0.020520598
0.027814731 0.068561405 -0.074066684
-0.053861648 -0.079846531 0.061555557
0.11462735 -0.0084307492 0.080257215
-0.10729177 -0.056811243 -0.067038618
-0.072103068 0.08933723 -0.039926678
0.078922033 0.090352625 0.014913887
-0.15900402 -0.033114761 0.00016637892
0.18192162 -0.046957284 0.0074330643
0.14552279 -0.067146331 0.0030540749
0.018895119 -0.099898905 0.019395538
0.093729332 -0.049607962 0.072208799
0.062203556 -0.060618252 -0.073226996
0.121797 -0.0073886216 -0.076919883
0.03030251 -0.081441432 0.059046321
-0.15874113 -0.017279238 -0.028028354
0.040958464 0.096770734 -0.023388654
0.18625213 0.030633271 -0.00023308396
-0.089798495 -0.045703024 0.083607234
-0.014079735 0.07298544 -0.0734521
-0.12546284 0.06750989 -0.014115043
-0.095664486 -0.078035265 0.051509328
0.17174238 -0.046082884 0.02629254
0.072257519 -0.038031727 -0.084631458
-0.11910541 0.037086785 0.069244035
-0.11586501 0.051779956 -0.062521353
-0.13455202 0.0081804097 0.054047279
-0.21214946 -0.033253342 0.028580867
0.023032606 -0.095024556 -0.034694374
-0.1223108 -0.057674259 -0.046036072
-0.2017781 0.033493102 0.026227303
-0.043428317 0.073892981 -0.070360757
-0.07143791 0.052495569 -0.083083302
0.075302511 0.074468821 -0.05438355
-0.12593563 0.068237484 0.0026719421
0.14555374 0.042533726 -0.051703338
-0.0067114532 0.085415363 0.057864271
0.15676418 0.020322978 0.058447115
-0.043585286 -0.092286319 -0.042801805
0.092519701 0.057470173 0.066792421
0.18633486 0.028121799 0.010931507
-0.077977583 0.011319906 0.09647999
-0.093712494 -0.010528475 -0.092822805
0.034128994 -0.097157568 0.026849113
0.070109837 -0.03383866 0.087508999
0.14031219 -0.055277258 -0.041685626
-0.10816552 -0.064202577 0.060149111
0.01499103 -0.099382788 -0.025607221
0.088673808 0.066945642 0.059034534
0.010919854 -0.055750519 -0.085740209
0.17228925 0.0015003383 0.053102605
-0.14431967 -0.027929038 -0.032626927
0.17282346 -0.032673508 0.040604092
-0.12001859 0.021430045 0.074575938
-0.065693751 -0.028743535 -0.095132381
-0.11160634 -0.060847431 -0.060238212
0.037981808 -0.027215809 0.096637361
0.12947735 0.06673032 0.034256555
0.14382166 0.026503384 0.063004233
0.17514452 0.050534278 0.0077204332
-0.1252621 0.055624157 -0.040898025
-0.15722407 -0.033077985 -0.0056393817
-0.0092439502 0.073974282 0.072891764
-0.014902249 -0.028634697 0.099766336
-0.060691193 -0.034763187 -0.093402632
0.031545684 -0.085302681 0.053779908
0.039481997 0.0053490102 -0.09909559
-0.02004385 -0.037282795 -0.095664337
-0.085461691 -0.05259791 -0.079868734
-0.075117394 -0.038223833 -0.089516982
0.1004856 0.038371265 -0.076020241
0.043201864 0.096981943 0.019872703
-0.018956989 -0.09703204 -0.034387067
0.040424198 -0.062025934 -0.076983929
-0.040344521 0.078607798 0.065102302
-0.11858745 0.031771123 -0.071612477
-0.0026750863 0.077980429 -0.066905767
-0.073501393 -0.0066581368 0.097945102
0.0028337091 -0.083566636 -0.059407864
-0.02135396 -0.016174942 0.10184611
0.10035534 -0.052321643 0.067517228
0.17568111 0.012009233 0.049992152
-0.045892134 0.10022438 0.015538774
-0.1733226 -0.017244309 0.025738411
0.11096477 0.076497883 -0.028740458
-0.18852626 0.011935443 0.033660211
0.038710952 -0.088554353 -0.045479
-0.14009492 -0.00018244982 0.04810939
0.16711 0.042161196 -0.036130279
0.14512044 -0.050139755 0.045318149
0.11603923 -0.055830151 0.058028527
-0.072493806 0.097302884 -0.010185786
-0.071155474 -0.00025498867 0.099181838
0.092278525 -0.017503113 -0.085821494
-0.081844702 -0.096628875 0.0042122528
0.059558898 0.072892278 0.062797822
0.16199797 -0.058298022 -0.0027224571
-0.0057262927 -0.054902107 0.087760516
0.02349025 -0.090532094 0.045973249
0.146191 0.016148806 0.06562493
-0.11316286 -0.083861321 -0.0048972741
0.032135546 -0.036097437 -0.093192071
-0.087562129 -0.063320726 0.07145872
0.066752702 0.068600893 -0.065248705
-0.057449073 -0.09023276 -0.043963902
-0.091262862 -0.040778786 0.085284464
0.069127068 0.070972741 0.061946623
-0.11714505 0.076781631 0.02398897
0.18626601 -0.0056320429 -0.029562593
0.019492328 -0.098859757 0.026817597
0.077702716 -0.090693921 0.013278373
-0.029620677 -0.041041285 -0.093756154
-0.12536664 0.064524174 0.024757497
-0.010343924 -0.078439981 0.067155413
-0.0062617958 -0.055728763 -0.08666192
-0.028346568 0.097442269 0.032878645
0.085314959 -0.077598184 -0.045799971
0.10926072 -0.050404042 0.065270357
0.18735409 0.0066191256 0.023210071
-0.20744406 0.040116787 0.022362642
-0.13416778 0.052820116 0.016076021
0.065499932 -0.036598116 -0.086848885
0.18413348 -0.026847988 0.029912971
0.076928116 -0.054546326 -0.073595122
-0.037716761 -0.054734975 0.086963333
-0.0040561259 -0.10026273 -0.026053123
-0.12617813 -0.0031093955 -0.067502946
0.07006032 -0.088090748 -0.031274326
-0.0054252446 0.08973825 0.052175082
-0.20513566 0.012803853 -0.043055527
0.037907928 0.010175556 -0.098707944
-0.12359197 -0.049253434 0.053241633
-0.16483645 0.028859049 -0.01055482
0.17496377 -0.042835087 0.027685396
0.13032104 -0.06812039 0.029104047
-0.13499285 0.040598214 -0.035210952
0.058448166 0.096204042 0.0056535304
-0.1178873 0.0038789809 -0.079232253
0.0041820854 -0.0047519803 0.10304705
-0.14916427 0.03807807 -0.0021533072
0.11109198 -0.028052717 0.077018924
-0.14007558 -0.037403196 -0.029422462
0.095256172 0.041178912 -0.076675937
-0.020285457 -0.10118076 0.01996275
0.089613557 -0.035858124 -0.080551125
0.16144244 -0.035716206 0.046865545
0.017096296 0.10003933 -0.019104995
-0.0044873059 -0.096143693 -0.036347903
-0.063329026 -0.017332047 0.098187007
0.18081616 0.014077067 0.049663015
-0.10235916 0.047370493 -0.077420861
0.037136585 0.066324711 -0.074371167
0.13746095 -0.070942432 0.0035262406
-0.17126401 0.020029724 0.022936709
-0.070402518 -0.096553832 -0.020273864
-0.013719037 0.056167901 0.08684928
0.14891404 0.058984101 -0.028628953
0.17203115 -0.051836103 -0.0065569654
0.043049097 0.089938641 -0.04054711
0.12855414 0.061211199 0.04374852
-0.18542542 -0.034301192 -0.0036149919
0.032510594 0.095847338 -0.03007336
0.13967603 0.070255697 0.0036771297
0.060443237 -0.04180941 0.08649797
-0.10273762 -0.014214426 -0.089066446
0.13667619 0.015975595 0.070174657
0.14760654 0.054904431 -0.036856078
-0.089093164 0.0059139431 0.094874822
-0.01123786 0.096754044 -0.035087079
-0.067415491 0.087804466 -0.045624204
0.049609661 0.073390633 -0.064554483
-0.21151428 0.035686672 0.026400335
-0.098380193 0.061233729 -0.068861246
-0.095099613 0.083200097 -0.042111598
0.16264786 -0.057321936 -0.0073297322
0.041175097 0.089360297 0.043283589
-0.12854691 -0.0046060383 -0.063160583
0.083853744 0.085428834 -0.029226393
-0.10002114 -0.063811332 0.066677667
0.11016115 -0.0003695786 -0.082255162
-0.10391913 -0.048785359 0.075968809
0.097014785 -0.084077209 0.021915115
0.031698585 0.032850564 0.095184647
0.18432558 0.0059058666 -0.038371183
-0.158289 0.032557279 -0.0021472797
-0.081740901 0.0030336678 -0.096422493
0.011728257 -0.10166356 0.01044409
-0.1380053 -0.048866719 -0.012918539
0.057331011 -0.077868968 -0.056205478
0.097860821 -0.047831982 0.071969233
0.085333183 -0.063680798 0.064501248
0.10131095 -0.066645116 -0.05212988
0.01450029 0.077115327 0.067233883
-0.0081482381 -0.033099383 -0.097435072
0.090027235 0.040807337 0.079110004
0.13544567 -0.046973437 0.0547565
-0.02617991 -0.033979505 -0.096838526
0.05477047 0.096440136 0.0090751648
0.046223521 -0.079101712 -0.057862543
-0.21236826 0.029431075 -0.031173222
0.071143329 -0.092070788 0.015220262
-0.18453558 -0.030441314 -0.015298009
-0.0071382076 -0.10265437 0.0089132115
-0.1411268 0.0059395134 0.046102248
-0.10356279 -0.076962143 0.047765367
0.18876238 -2.7507544e-05 -0.0065893456
-0.13645329 -0.030942947 -0.041682497
0.10510665 0.072226375 -0.043172859
0.04839325 0.096961766 0.013975799
0.18111949 0.029608846 0.040660031
-0.12187223 -0.02137199 -0.07162378
-0.056064293 0.069656402 -0.072768986
-0.1530752 0.027772874 -0.021512419
-0.12272926 0.072144002 -0.012864701
0.14447974 0.039253831 -0.054871578
0.16022617 -0.028746337 0.052723415
0.0058967322 -0.066587597 0.078306429
-0.07052736 0.048646063 -0.08597897
-0.0067326725 0.0099806488 0.10268987
-0.10905503 -0.030559093 0.081532858
-0.084846005 0.093157798 -0.023366868
-0.023247689 0.10163334 -0.014899589
-0.013383582 0.064592808 -0.079887152
0.034529924 -0.10061917 0.0011849701
-0.050464109 0.099064589 -0.020315208
-0.10699166 0.04204154 -0.077667579
-0.10833855 -0.024043649 -0.084324703
-0.10786252 -0.028822809 -0.08264824
0.0014717579 -0.008988589 0.10263634
-0.069949403 -0.084480256 -0.051399168
0.048305139 -0.031624585 -0.09253265
-0.099201813 0.027178258 -0.087890357
-0.019504309 -0.054007858 -0.088013887
-0.11882119 -0.0016185045 -0.078564428
0.15954636 0.0450598 0.040189438
0.11098873 0.006595701 0.081876002
-0.015419021 0.079922467 0.065069474
-0.19816415 0.0065300465 0.040275045
-0.064083055 0.073560864 -0.066854
0.14281073 0.032237172 0.061143346
0.070479773 0.084804595 0.040009849
0.1772444 -0.030438036 0.040737472
0.04349795 0.048880994 -0.086228736
-0.11775436 0.061760098 0.050185047
-0.017503977 -0.0066055954 0.10313597
-0.046028942 0.089723021 0.04849463
-0.18163662 0.029456556 0.012845531
0.048440263 -0.046335071 -0.086403251
-0.12579815 0.06025371 -0.032509029
0.063310519 -0.072577208 0.061738454
-0.13435684 -0.054127902 -0.0089351907
0.022198856 0.10026473 -0.014065608
0.029422104 -0.089123458 0.047671877
-0.10591994 -0.081428021 0.035678722
-0.03088516 -0.060580164 0.082949601
-0.090184167 0.066673905 0.067916892
0.046970785 0.061021477 -0.076552518
0.033365697 -0.099868029 -0.0072595999
0.082608111 -0.035505205 0.083484106
-0.042296499 -0.045914024 0.091381215
0.15915225 0.04387185 -0.041296847
0.1290832 -0.060798198 0.043495946
-0.14911182 -0.018455237 -0.033772156
0.034540594 0.038007975 -0.092106611
-0.073217109 0.06735447 -0.071338437
-0.096465364 0.065500736 0.066791259
-0.084909663 0.065745413 0.070091523
-0.077084467 -0.043467849 0.08736252
-0.081941679 0.084552974 0.047109641
-0.12687655 -0.05107215 0.042635642
-0.043028057 -0.064534932 0.0789501
0.1324912 0.016361028 0.071998931
-0.10685806 -0.078547686 -0.040751047
-0.11012985 5.4687262e-05 -0.086509839
0.063342646 -0.069558114 0.065650009
-0.078064337 -0.0046967864 0.097362019
0.00061184168 0.014975488 -0.10135209
-0.056084484 0.078684926 -0.061955076
0.026954666 0.081603229 -0.058990568
-0.049992651 -0.095700771 0.033415921
-0.032563746 0.037111253 -0.095204562
0.13150021 0.07224068 0.01667995
0.14516407 0.031014085 -0.059679031
-0.099893048 -0.021395475 -0.089345716
0.12442581 -0.075270265 -0.01324176
0.092277221 0.086073071 0.019489132
0.086308427 0.04066503 -0.079687692
-0.16697381 0.019549757 -0.023337603
-0.12062292 -0.069320649 0.031993009
0.15673789 -0.057445019 0.021480076
-0.088773414 -0.079289466 -0.052260101
0.046149001 0.029491782 -0.09380497
-0.078468308 0.056990534 0.078465946
0.0053784102 -0.056162208 -0.085823603
0.13654856 -0.070462078 0.010316037
0.064132601 -0.092895061 0.020817079
-0.079338387 0.091052115 -0.03236451
0.092305094 -0.044146508 0.076904021
0.032354265 0.080924153 -0.058815677
-0.134223 -0.053715914 -0.013447538
0.10195272 0.076052487 -0.037698813
0.031909093 -0.095184594 -0.031697273
-0.15803154 0.0040713251 0.032767452
-0.050021455 0.092596561 -0.040048607
0.023750558 0.062148005 0.080071948
0.084268101 0.0016860962 0.090937115
-0.044311091 -0.082105666 0.060199626
-0.020504266 0.025564104 0.10059201
-0.017330572 0.076058447 -0.069562823
0.09861166 -0.0031991899 0.086413972
0.018957362 -0.029247671 0.098056577
0.13613749 -0.039333373 0.060195275
0.055071682 0.060121268 -0.075438127
0.023605525 -0.066206664 0.076956458
-0.0378391 -0.07921198 0.064784132
0.18676643 -0.018352777 0.021240659
0.086767994 0.029690772 0.084745057
-0.065461144 0.097477674 0.018022545
0.00012236834 0.094904393 0.039493285
-0.093764648 -0.092678517 0.014006369
0.14811397 0.066185296 0.0033743978
0.053347096 0.054612845 0.080672748
0.011874065 0.030144125 -0.097762831
0.10788 -0.081176907 0.016718678
-0.1237423 0.069908082 -0.018289022
-0.11230151 -0.037025303 -0.075861566
0.18387656 -0.03966853 0.011170141
-0.19140045 0.014779598 -0.033952586
-0.0066252053 -0.095680624 0.038119964
-0.024883285 0.10332057 -0.0016469732
-0.046880037 0.10102791 0.0086538643
-0.0023657978 0.0869385 -0.055242673
-0.034541979 -0.04602018 0.091936044
0.13729419 -0.052867323 0.047841899
0.026123807 -0.0082403123 -0.10041617
-0.17684431 0.0095022917 0.029716469
0.15754439 0.061461478 -0.00097020715
0.18415053 0.034464121 0.020768143
0.099369138 -0.047104508 -0.071254641
0.15788199 -0.029396921 -0.053048782
-0.05256182 -0.045668751 0.090404592
0.10176303 -0.061753362 -0.058273997
0.13517617 0.053761691 0.048769005
0.1191557 -0.060696989 -0.049531382
-0.068925962 -0.063693672 -0.075193301
0.1009917 -0.084647328 0.0078033283
0.12814632 0.075230688 0.0048646033
0.13479067 -0.063881189 -0.033496946
0.055585489 0.095402062 0.015852548
0.074647062 0.077247232 0.051653214
-0.031576902 -0.080409914 0.063792355
-0.11952545 0.059780896 -0.049101699
0.1110313 -0.0812473 -0.0069650337
0.12558866 -0.071917921 -0.024395466
-0.058212265 -0.081672043 -0.05787405
0.080484241 0.089015841 0.02209466
0.12835029 0.074158013 0.012404263
-0.084598437 -0.094219118 0.0181318
-0.20558505 0.023073822 -0.038831532
-0.042674333 -0.055108517 -0.085778639
0.0046508312 -0.10183051 -0.011706978
0.074683018 0.025622815 -0.08918763
0.15270533 0.031893671 -0.05518391
-0.11333041 -0.007088989 -0.083179876
-0.12575792 -0.050184816 0.047132708
-0.12578295 0.065626681 0.02017685
0.17599303 0.0094988942 -0.049422424
0.0025373846 -0.093910426 0.04174789
-0.18598811 0.018691272 -0.028691322
-0.10225548 -0.01721105 0.089279585
-0.0093361437 -0.093791932 0.042837642
-0.11540808 0.043606728 0.069772594
-0.055489674 0.088836551 -0.047472283
0.16631287 0.052824587 0.019665651
-0.082497135 -0.01988706 -0.094091423
-0.0078609288 0.037250102 -0.095674604
0.1423451 -0.009083122 0.068386234
0.058823243 0.096113503 -0.0052883923
0.08398132 -0.088251084 -0.018953413
-0.063971713 -0.099254817 -0.0073123351
-0.14879821 0.034867465 0.016250931
0.083123885 0.013946891 0.089601018
0.042065665 -0.099092156 -0.0038624629
0.16310284 -0.03545019 -0.04508438
-0.096209988 0.017665029 -0.091161042
-0.10951476 -0.081379741 0.029911272
-0.12134086 -0.0067941844 -0.074774712
-0.12887429 -0.022295624 0.059113331
0.1876155 -0.011140376 -0.018636405
0.07657513 -0.055339247 0.073731743
-0.050659522 -0.083882958 0.056872748
-0.10948955 0.086186498 -0.0069890991
-0.061100855 -0.040267318 -0.091055036
0.13353065 0.039709687 -0.060918968
-0.14599542 -0.029512316 0.029566891
0.030187249 0.059146225 0.081487589
0.10785097 -0.024191469 0.079844527
0.027673051 -0.03885743 -0.092635669
-0.012030557 0.05744648 -0.085375771
-0.028777331 -0.046003968 0.092215486
0.01317355 0.03409487 -0.096052311
-0.083510831 -0.096137911 -0.0049016401
0.092685424 0.018049389 0.086318247
-0.042757094 -0.093229681 0.041123234
0.030068845 -0.099408418 0.014435545
0.18794578 0.0010879934 -0.019234017
0.16964488 0.047209799 0.027857922
0.10133283 0.07543081 0.040426634
-0.051705644 0.014045835 -0.099646807
-0.057610005 -0.087459534 -0.050435498
0.030307963 0.093739718 -0.035833903
0.10321046 0.005810231 -0.08393392
0.18174525 0.045377821 0.016532458
0.040890336 0.01585114 -0.097501457
-0.065447345 0.062157154 -0.076894902
0.021772325 -0.060430378 0.081581168
0.058217824 0.04584071 0.085308351
-0.10164304 -0.089431554 -0.01725962
-0.10017924 0.085169882 0.033236541
0.059883118 0.089149147 -0.034851432
0.14212403 0.035548985 -0.059143163
-0.056438223 0.059119195 0.081210218
-0.031037509 0.10226455 0.007955566
0.060507834 -0.095321864 -0.0077997372
0.14156795 0.02156949 0.066227295
0.13048013 -0.051728636 -0.053107247
-0.059835181 0.0081160963 -0.099429823
0.1730987 -0.0085007846 -0.050596312
0.11634852 -0.010951847 -0.078577369
-0.095502868 0.085574895 -0.036114968
-0.039000377 0.010906994 -0.10122083
-0.1276104 -0.063603014 0.015704803
0.06974151 0.045913249 -0.082045339
-0.032754257 0.047578841 0.09131486
-0.081461504 0.039649367 0.087919153
0.097985208 0.086402774 -0.0031124875
-0.072452381 0.07862252 0.058476858
0.16379802 0.048156887 -0.031438842
-0.052554846 -0.068996459 -0.073901519
-0.015839145 -0.089460403 -0.0522146
-0.13733642 0.011327386 0.049952678
-0.089465156 -0.058245271 0.074811883
0.089822315 -0.083003134 -0.030085191
0.14213344 -0.039747506 0.05636885
-0.10488491 -0.082450539 -0.034230918
0.17853822 -0.03412649 0.038371973
-0.040311933 -0.089380771 0.050891481
0.025046393 0.0037935078 0.1016793
-0.0055579543 0.099055737 0.02975329
-0.03086701 0.10317701 0.0010269657
-0.11306833 -0.051825494 -0.065714434
-0.10629036 -0.072789639 -0.050411135
0.074431144 -0.0750992 0.0543411
-0.07127206 -0.02497527 0.095924012
0.13562205 -0.068265468 -0.021901079
-0.025686309 0.072090894 0.074300103
0.098197229 -0.020965189 -0.083548158
-0.10880883 0.072321355 -0.048244819
0.094775327 -0.054674953 -0.067277059
-0.2059532 -0.045168608 -0.0077457577
0.036591992 -0.048795134 -0.087331675
0.1074521 -0.081988961 0.011766866
0.15775464 0.061097413 0.0036029741
0.18033296 -0.047310382 -0.020986266
-0.11235256 -0.014478832 -0.082999334
-0.10517581 -0.068298489 -0.057302874
0.013993308 -0.0050316155 0.1024589
-0.0084539354 0.076058716 -0.069615021
-0.044399261 -0.027430207 -0.098410085
-0.023735747 0.001537323 -0.10319164
-0.094873115 0.064396679 -0.067856461
0.11627787 0.068640798 -0.041362658
0.076855853 0.087748945 -0.028248727
-0.016782984 0.06904453 -0.076437116
-0.11364292 0.045264393 -0.069990516
0.10026632 -0.04412207 0.073823713
-0.11304848 0.059969038 -0.059151437
0.01949577 -0.051030487 0.089012541
-0.026605025 0.081568778 0.062483303
0.044616237 0.096889526 -0.01827345
-0.13248064 -0.047090858 -0.032789379
0.16648938 -0.051680654 0.021024354
0.17799743 0.033334494 -0.038345315
-0.047719136 -0.098868042 -0.02535405
0.14209349 0.05916822 -0.035712324
0.0039169341 -0.052648693 -0.088630274
-0.076663509 -0.062243193 -0.074633494
-0.020613551 0.040120095 0.094922416
0.18165439 -0.047125369 0.012339227
0.14329246 0.068882704 0.00095596164
-0.047160462 -0.094572872 0.036864541
-0.036488235 -0.050149292 0.090092324
-0.033532068 0.0069016218 0.10256042
-0.02468136 -0.054888695 0.087631784
0.0028946847 -0.026812106 -0.099695377
-0.10794444 0.086061627 0.015862755
0.070806794 0.039776981 -0.084329434
0.13763453 0.010514796 -0.069718711
0.047675684 0.097671688 0.0093838573
-0.043304682 -0.10176995 -0.0062375963
0.10532647 0.024415016 0.080799438
-0.063804284 -0.066154987 -0.074282959
-0.063180968 0.088971466 -0.044490673
0.13204648 0.036399573 -0.064008519
0.11514601 -0.064193875 -0.04746139
-0.095829532 -0.06556657 0.0672049
0.049528778 0.076977074 -0.059911046
-0.13313518 0.051668465 0.022670366
0.18514153 -0.0036495626 -0.035462253
0.083030291 -0.051335365 -0.0740913
-0.11215882 0.083952576 0.009589389
0.17303412 -0.0028367937 0.052189581
-0.20134045 -0.019704312 -0.038116693
-0.15834777 -0.02963379 0.015002526
-0.035091445 0.073215872 -0.072244257
-0.13180535 0.029334724 -0.050701875
0.08315783 0.047083378 -0.077457413
0.036923125 -0.099053115 -0.010141559
0.10970563 0.082005054 0.0076270029
0.10683159 -0.082844347 0.0069203004
0.062754333 -0.065741926 -0.069134712
-0.0022117347 -0.041243225 -0.093894467
-0.15494569 0.02664575 0.021527924
-0.12875552 0.049540401 0.039236061
-0.10639988 -0.089217991 0.00072538853
0.063153595 -0.071157247 -0.063056044
-0.19514196 0.023579717 0.030992724
0.019786686 0.025330216 0.099277578
0.059389651 0.086005241 0.04330381
0.064305589 -0.075394243 -0.057102766
0.016197801 0.10228136 -0.0027764663
-0.073314831 -0.098023504 0.0058067217
-0.099023297 -0.090998322 -0.013740689
-0.056163669 0.095467061 0.031686269
0.089818075 0.051092505 0.072675489
0.085462324 0.088430941 -0.015831448
0.1640248 -0.056116313 0.011145003
0.041034043 -0.0047027767 0.099500708
-0.00032986701 -0.00061115623 -0.10328051
-0.076732859 0.096572816 0.010238893
-0.20940448 0.0052004457 0.045642085
-0.010732055 0.0051653087 0.10340223
0.082296826 -0.077176243 0.048354648
-0.19898798 -0.036209136 0.021200411
0.058838859 0.0065816939 0.09623038
0.105121 -0.072358161 -0.04262542
0.11117163 0.071849763 0.040488742
0.060435012 -0.082452923 0.049909674
-0.1976629 0.026251763 -0.030603096
-0.092888221 0.024472117 -0.091118693
0.02038458 -0.021336645 -0.09920942
0.12008819 0.078248769 -0.006152302
0.10278711 0.067404598 0.051363789
-0.13561134 0.022713304 -0.047779847
0.089860074 0.0089859962 0.088344045
0.00025199354 -0.078247637 -0.066505544
-0.096616939 0.032556146 0.087040864
0.11277031 -0.072093636 -0.037034065
-0.10096739 -0.0022532046 0.091806777
-0.10743169 0.036690414 -0.079580083
0.12996669 0.020397067 -0.071620472
0.15082063 -0.019122034 0.062124334
0.057216942 0.07847175 -0.055624519
-0.0081758648 -0.046630472 0.09233173
0.17564997 0.017020911 0.048357837
-0.086943075 0.054685652 0.078044288
-0.14825161 -0.016448885 0.03568963
-0.20988144 0.03434366 -0.029882714
0.12617132 0.0013172925 -0.075970992
-0.18149142 -0.0089360774 -0.031459033
0.097852163 0.059969872 0.062838621
-0.049969152 -0.10097745 -0.0074785128
-0.10985343 -0.051371723 -0.069129586
0.023610711 0.089291573 0.049072035
0.18342341 0.015570581 -0.039346501
0.10585903 -0.082255989 -0.013108253
-0.090567157 0.085982263 0.038772188
0.072257042 0.093070924 0.0070213154
0.054600611 0.044516146 -0.085998669
0.18487015 -0.032627553 -0.01752913
-0.14116509 0.045654327 -0.0064145029
-0.14931746 -0.037690431 -0.0074629262
0.10726567 -0.017908663 -0.0809725
-0.0091433674 -0.10198846 0.01430767
0.084855184 -0.022846431 -0.087288074
0.040120423 -0.095812112 0.02797287
0.18335155 -0.015424103 0.040230997
0.11381375 0.079017401 0.01917278
0.11275806 0.03944689 0.071774133
0.10142314 -0.032337338 -0.078083999
0.1883276 0.0021762848 0.015059017
-0.054188654 0.10030752 -0.007814005
0.014992729 0.078910947 -0.064275593
0.036004454 -0.075060219 0.066208966
0.027129576 -0.098867148 -0.020816498
0.1387915 -0.065635353 -0.024437442
-0.060612544 -0.07768324 0.062969379
-0.14227022 -2.3394823e-05 -0.045270137
-0.05945529 -0.032198638 0.095061384
-0.086099729 -0.038067728 -0.087259457
0.083881781 0.081049144 -0.039764814
-0.21038987 -0.04374221 -0.014123283
0.11720426 -0.07847926 -0.010583356
0.022092 -0.086339921 -0.05353329
0.14330713 -0.044959694 0.051674165
0.040407673 0.028695971 -0.095087267
-0.014415264 0.047353506 -0.091517232
-0.0072855353 -0.083276004 0.060759358
0.021137759 0.020410508 -0.099279679
0.049250066 0.031924307 0.092885591
-0.1255915 0.042980373 -0.053258136
-0.11360307 0.03644523 -0.074894503
-0.13346101 0.033493847 0.044958673
0.18709537 0.0040993392 -0.02488295
-0.031387046 -0.03201583 0.097876705
-0.061163202 0.066808522 -0.074112624
-0.13007258 -0.03027305 0.053697653
-0.11393826 0.063581228 -0.053267807
0.053849041 0.064211696 0.073173337
-0.10287483 0.011287242 0.089755856
0.008668378 -0.029985517 -0.098043911
-0.10267569 0.013549924 -0.089161798
-0.14796735 0.037856162 0.010896638
0.034150735 -0.066939861 0.074877627
-0.003901571 0.092959404 -0.043886565
-0.13110037 0.048745692 0.034167834
0.020513535 -0.053342432 -0.086627923
0.033653438 -0.010673016 0.099732928
-0.12359075 0.061326265 0.038565211
-0.13092111 -0.0029820204 -0.059615139
0.037186682 0.093007743 0.036026485
-0.052035376 0.026114911 0.098444872
0.0078199357 0.076905847 0.06814567
-0.14237772 -0.044976443 0.0043951273
-0.026159391 -0.079629153 0.065170534
0.013084188 -0.012624592 0.10153068
-0.074767902 0.074978441 -0.06214641
-0.058422133 -0.020560592 0.09844429
0.061665863 0.092970908 -0.024711758
0.10197058 0.033762217 -0.077406406
0.11735858 -0.079475254 0.0033588856
-0.076580301 0.030622363 -0.092272833
0.078278065 -0.091717631 0.0044640601
-0.082211807 -0.0094018877 -0.095542043
0.11329473 0.081617415 -0.00019523501
-0.17658262 -0.022178739 -0.022392265
-0.15759523 0.030973762 0.011211403
0.012998775 -0.10188255 -0.0076207966
0.14412417 -0.054995269 -0.039035015
0.058539048 -0.074579984 -0.060125288
-0.20482381 -0.022034496 0.039430819
0.047399998 -0.001473099 0.098943762
0.1108309 0.057644904 0.059216358
0.051768184 -0.0094599426 -0.096558779
0.097906217 0.0094236135 0.085871778
-0.19986673 0.02628389 0.032177471
-0.075998589 -0.095726937 -0.019155256
-0.07811974 -0.071889132 0.065877698
0.03630349 0.024976492 0.097528286
-0.050068945 0.096285254 0.031552993
-0.11436479 -0.017241985 0.081396185
-0.11913534 -0.022892505 0.075154983
0.063321218 -0.095248908 -0.0037090853
-0.1924756 0.035841256 -0.011147194
-0.020202696 -0.094494373 -0.040506877
-0.026847214 -0.056939691 -0.085491627
-0.01819925 -0.059376985 -0.083897725
-0.10482319 -0.086262614 0.02550932
0.0021097213 -0.033872396 -0.096834049
-0.040681317 -0.0075387061 -0.10155886
0.014254093 -0.073026568 -0.072075427
0.02926521 -0.018965513 0.09918014
-0.086688176 0.075089127 -0.058141381
0.18635333 0.0037628412 0.029976659
0.15756376 0.053172559 -0.0306089
-0.046398014 0.10175994 -0.0031273067
-0.14219971 -0.037789553 0.025328062
0.041199669 -0.091679424 0.037480675
-0.051113874 0.09978205 -0.014369175
0.12528814 0.070118397 0.030589081
0.024640083 -0.017510265 0.099898152
-0.19220223 -0.0017804205 0.037795506
0.090115912 0.087719381 0.011684783
-0.10527317 0.018593371 -0.08716058
-0.17696469 -0.023815483 0.020694874
0.18575805 -0.031579524 0.0098978505
-0.10775776 0.07787177 0.040835775
-0.048951536 -0.030049413 -0.096863456
-0.20412312 0.042471975 -0.012023486
0.011263222 -0.027606696 0.099378191
-0.092302099 -0.041307777 -0.084428743
-0.016180098 -0.051462561 -0.089806445
-0.17456 0.026918888 -0.014500163
-0.10066472 0.076240182 -0.050178211
-0.078685865 0.088500738 -0.038837776
0.14144419 -0.056716889 0.039686911
0.035814792 0.089335561 0.045340128
-0.037309691 0.012017965 0.10164543
0.14848137 0.033258498 -0.056958463
0.07550884 0.064534545 0.067135654
0.095627271 -0.081245869 0.0306058
-0.033719853 -0.10131904 -0.01481989
-0.12787031 -0.0059313178 0.064614646
0.044006407 -0.089297205 0.042082347
-0.0092178583 -0.00063294172 -0.10349479
-0.21216662 0.039101213 -0.018513009
0.016326323 -0.037578136 0.094866075
-0.059574708 -0.09783712 -0.022815526
-0.07599403 0.048999786 0.085173868
0.022996649 0.021796316 0.099467196
-0.13012616 -0.054655224 -0.027138621
0.073053464 0.047667205 0.080890827
0.067100123 -0.09410271 -0.0060089231
0.037115842 0.019153804 0.098204382
-0.11648677 0.07739675 -0.02378197
0.18351962 0.039273143 -0.015206955
-0.054999977 0.055790424 0.083995752
-0.10873221 -0.086235315 -0.012116514
-0.031077266 -0.074725121 -0.070789859
-0.095058545 -0.070511729 0.061574571
-0.10437287 0.07627961 -0.047294125
-0.1723599 -0.022810191 0.021039955
-0.17302449 0.022841662 -0.020050056
-0.12087472 0.063237071 0.042299412
0.090269998 -0.086341828 0.020064361
0.1052283 0.030542433 -0.077595219
0.18682939 -0.015795201 -0.022092611
0.077879176 0.082174778 0.041673563
0.017710999 0.045893252 0.091288887
-0.197136 -0.02957353 -0.028086327
-0.12014575 -0.0076502264 0.076648317
-0.14974095 0.036868006 -0.0074346736
0.049005002 -0.0038556457 -0.097811028
-0.078347847 -0.068076044 0.070178904
-0.036108062 -0.027699858 -0.098962612
0.055771649 0.091078907 -0.032185979
0.0097174644 -0.038192302 0.095098995
0.15637165 -0.043885261 0.043968491
0.13805845 0.024404347 0.06681142
-0.075065538 -0.021487802 -0.095297448
-0.20196448 -0.040539235 -0.015441455
-0.010647416 -0.10093197 -0.022030339
0.12789834 0.038977295 -0.064534955
0.14939617 0.02571854 0.060350336
-0.007368207 0.088858843 -0.05292635
0.076208085 0.0010006726 -0.092432238
-0.068444595 0.077821046 0.060632475
-0.11695774 -0.058763474 -0.055236395
0.15170813 -0.024986058 0.059217341
0.1366307 -0.027470022 -0.065350421
-0.0039387643 -0.048598975 0.091414846
0.13651541 0.038699895 0.060763933
0.14591844 -0.06126079 -0.026107118
0.023153991 -0.057432503 -0.083185017
0.01416482 -0.074044973 0.07125213
0.14747231 -0.033415109 -0.057193089
-0.13910012 -0.033065349 -0.035935007
0.0805609 -0.038667768 -0.082088701
-0.11800177 -0.074809283 -0.026257992
0.04624632 -0.029511422 0.094323076
0.074768141 -0.0076315105 0.092536412
-0.065394506 0.040907115 0.090456776
-0.029454619 -0.00075018406 -0.10310114
-0.089086637 0.094445735 0.0069690496
0.037360251 0.049279451 -0.087079525
-0.015772253 -0.064646035 -0.07986889
0.18840107 -0.01325801 -0.0044205859
-0.13476594 -0.043360621 0.03284914
-0.091472432 0.071358591 0.06162896
-0.12450875 0.066898376 -0.022438876
0.04685007 -0.064391404 0.074512877
-0.095787868 -0.084208101 -0.039903335
0.170311 0.053361744 -0.0066279694
0.075901657 0.077203542 -0.050574049
-0.089915857 -0.058483094 -0.074122682
-0.11949827 -0.074851245 -0.021849304
-0.12370427 0.040223271 0.059912927
-0.098084673 -0.088697165 0.02739691
-0.016634494 -0.015406698 -0.10150264
0.13230245 0.042831898 0.059938051
-0.072268531 0.03343007 0.092356913
0.01019004 0.1000931 0.023059018
-0.13311519 -0.015468448 -0.054561742
-0.039976418 0.091144711 0.046416499
-0.0018571615 0.046487004 -0.091707855
0.099934958 -0.018219024 0.084029935
0.09280625 0.066799015 0.05727867
-0.10329629 -0.071213096 0.055483826
0.063587576 -0.094025463 -0.012628943
0.016361848 -0.10201153 -0.0045271665
-0.1749007 0.0054798424 0.030389629
-0.021936178 -0.018507451 -0.10104834
0.099328242 -0.057976931 -0.062916443
-0.0099172145 0.051810384 -0.089706153
-0.016758829 -0.075443 0.070963688
0.15860133 -0.025236875 0.055136077
-0.063164338 0.014675409 -0.098115623
-0.059673622 0.074385852 -0.06679289
0.027874291 0.014591485 0.099919684
-0.12874202 0.055157989 -0.031313412
-0.046871766 0.099561632 0.019888811
0.040987507 0.076905131 0.062742703
-0.019086063 -0.078662425 0.066743918
-0.11638294 0.022299647 0.078452386
0.0050430894 0.095214158 0.038179033
-0.09128277 -0.09393689 -0.0087580085
-0.055642411 0.069507629 0.073349826
-0.19710724 9.3281269e-06 0.040558629
0.11912245 0.078408659 0.0085234419
-0.086042717 -0.0014054179 -0.095804095
0.012383282 0.0049547553 0.10258942
0.11026578 0.069881409 -0.043337911
-0.047514379 0.026961744 0.098664664
-0.10808994 -0.011727422 0.08681152
-0.096850142 0.091102004 0.017183773
0.10079275 -0.081259519 -0.025489599
-0.075918064 -0.080745608 -0.054591265
0.049904779 -0.095745295 -0.019992143
0.062066719 0.00010311604 -0.095817566
0.074148275 0.020843625 0.090971388
0.15338513 -0.013419896 -0.061469849
-0.15800489 0.015822619 0.029111199
0.0084263384 -0.10012195 -0.023120552
-0.078629121 0.036462218 0.089850239
-0.026116431 0.050475776 0.090423055
0.024140701 0.072982788 0.071274243
-0.031846687 0.086445749 0.055737816
-0.20112289 0.038585067 0.016867556
-0.12964658 0.044218421 -0.043298379
0.15311091 -0.001891315 -0.063134983
-0.02576299 -0.096998602 0.034516461
-0.20616348 -0.033662885 -0.031391084
0.0070040375 0.01955536 0.10094405
0.18717307 -0.0042628944 -0.024328634
0.00068230927 0.094422609 -0.040105022
-0.18196835 0.017314732 0.027563713
-0.03144215 0.096869648 -0.033477865
0.017885163 -0.09240976 -0.042235568
0.067382246 0.0095604062 0.094019733
-0.10569946 -0.0021705627 -0.089136437
0.092939302 0.024740189 -0.084202804
0.013897046 0.080037177 0.063503049
-0.025653586 0.034826249 -0.096457273
-0.11673252 -0.079544276 0.013510309
-0.1077332 -0.016073316 -0.08604376
0.15080465 0.064065218 -0.0083863288
-0.17241557 -0.031064183 0.0011156425
-0.086133465 0.029985368 -0.090481713
-0.11585669 0.068976551 0.043839075
-0.0016088337 0.083805382 -0.059290498
0.15074976 -0.026995689 -0.058141388
0.1298421 -0.060013145 -0.043254219
0.13687859 0.0090380311 0.071006931
0.013820052 -0.061634988 0.081539862
0.095135562 0.08344686 -0.025568001
0.057309553 0.073353648 -0.062257946
-0.11279581 -0.024191231 -0.08076901
0.030545205 0.099683762 0.012263581
0.04167904 -0.098165363 0.012024075
-0.11555178 0.011673599 0.081013866
-0.12373058 0.055651605 -0.045132481
0.0054930747 -0.078038663 -0.066375732
-0.1265571 0.066513509 0.0071868598
0.0070883036 -0.094985992 0.038488396
-0.044788867 -0.06088087 0.081557743
-0.044513583 -0.07436952 0.070234098
0.15493134 0.044825703 -0.043800026
0.043045029 0.091791809 0.036658399
-0.045630813 0.077940166 0.065229975
0.042297646 0.093652248 0.03245049
0.013947025 0.052361459 -0.088096596
-0.13283737 0.024521351 -0.051147897
0.027800933 -0.0054541826 0.10111859
-0.13248466 0.045295626 -0.034856051
0.18247192 0.044946492 0.010562584
0.15756975 -0.014925927 0.059819646
0.095865972 0.069663733 0.052076571
0.065331668 0.047440469 0.083057605
0.063844576 -0.045127004 -0.083706625
0.0042510629 0.090494215 -0.049143057
-0.011982307 0.094905019 0.040018536
0.070858791 -0.022448629 0.09154547
0.16188779 0.058134049 -0.0079627931
0.1668732 -0.043368667 0.034961425
-0.097438052 -0.037012845 -0.084603623
0.064905256 -0.089858979 0.030648269
-0.099898145 -0.053155929 -0.0745323
0.013362661 0.070887119 -0.073957771
-0.075477198 -0.076044232 -0.060861502
0.15725289 -0.014442354 -0.05926029
-0.21050216 0.043123335 0.013871193
-0.055615932 -0.10019961 0.009050332
0.092748381 -0.08587715 -0.017558135
0.1882405 -0.011469454 0.011470027
-0.13899411 0.010227889 -0.047707804
-0.063563272 -0.098362952 0.015000232
-0.15205909 -0.030796796 -0.019351028
-0.064069167 0.099771976 0.0021040514
0.05932948 0.037420481 -0.087977797
0.13524082 -0.026086718 0.067352377
0.1122942 -0.021666259 0.079193749
-0.20165925 0.001039803 0.043001749
0.073995121 0.082242489 0.044071369
0.0050886869 -0.091613144 -0.046424836
0.099206932 -0.051986068 -0.06757012
0.068165399 0.063431859 -0.069526479
-0.041892335 0.10247156 0.0010413229
0.18633261 0.024907261 -0.016580842
-0.17028977 -0.030427426 -0.0049939305
-0.20903407 -0.010411292 -0.045026302
-0.13158505 0.043738723 -0.039021015
0.03618446 0.071319491 -0.070562631
-0.041337535 0.020648807 0.10020045
-0.19672947 0.029429585 -0.026825055
-0.083694503 -0.074954897 -0.059697226
-0.048656806 -0.0071171224 0.10134207
0.037832811 0.054657996 0.083774917
-0.15956365 -0.011518925 0.030451216
-0.1403463 0.01818493 -0.043363377
-0.11617319 0.036891431 0.072628997
-0.10632633 -0.088676423 -0.0047303215
0.18409328 -0.0070945919 -0.039116465
-0.18536566 -0.0050882399 -0.033700496
0.12913187 -0.047831267 -0.056832142
0.020117387 -0.080052346 0.062577702
-0.11512785 -0.073956281 -0.035809346
-0.14161424 0.029087007 0.03544084
0.034198299 0.086316317 0.05197344
-0.13072287 -0.005427748 0.06002038
0.016306445 0.09414497 -0.038423501
-0.036982074 0.085719794 0.056213088
0.00042791665 0.079089105 0.06588117
0.069201194 0.093820572 -0.0058702826
0.12225808 0.043187499 -0.064208344
-0.096536264 -0.045808643 -0.081284381
-0.09078531 -0.0017800927 -0.094702914
-0.035466999 -0.089732081 0.050903149
-0.026430219 0.099993378 -0.026210032
-0.13215084 -0.057623595 -0.0060097277
-0.0083759725 0.072269768 -0.073993362
0.063429087 0.094131023 0.013747789
0.0017275661 -0.10040024 0.024243318
0.11588275 0.06141451 0.051728569
-0.056123793 0.10107622 0.00040359795
0.0010862499 -0.10146162 -0.015886866
-0.011757195 -0.10240027 -0.010730118
0.018541902 -0.0022085011 -0.10190921
-0.18905897 -0.029226094 0.021660857
0.18718067 -0.018987149 0.016363926
-0.031909674 -0.0037511289 0.1030468
0.085140973 -0.088591427 -0.013858117
-0.050017491 -0.054105371 -0.085693665
0.0028147697 0.060149282 0.083435364
-0.016883031 0.059728414 0.084066592
0.15633461 -0.059777945 0.016148992
-0.17935432 -0.0033394992 0.031702913
-0.00479424 -0.0017584562 -0.10323748
-0.11254336 -0.073675603 -0.042230383
0.093871608 0.052167386 0.070382707
0.05357191 0.080650449 0.054479487
-0.089539036 -0.09313336 0.018227749
0.16020122 -0.057968169 -0.012961112
-0.084736601 -0.085098714 -0.04451286
0.024449483 0.086449087 0.053644724
-0.039519832 0.096087813 -0.034119368
-0.050250471 -0.095303804 -0.033839844
-0.019208714 0.044353902 -0.092709236
0.10007785 0.041506737 0.075523548
0.11716632 -1.0877848e-05 -0.079712681
0.05870229 0.063510984 -0.071989074
-0.092354879 0.055428147 0.07593409
0.12430803 0.061705589 -0.04527165
0.037737623 0.039168119 0.091768049
